# 3D point list with one line of data per point:
#   POINT3D_ID, X, Y, Z, R, G, B, ERROR, TRACK[] as (IMAGE_ID, POINT2D_IDX)
# Number of points: 405, mean track length: 3.5033707865168537
30 -5.2439572509767114 4.9415876202989821 18.223563923387349 30 20 13 0.49054665945524967 21 1903 6 1280 5 281 14 1814
31 -6.108659947498861 5.0986540822185615 16.754887918648731 111 102 95 0.25175322687140489 21 1941 6 1371 20 1654 5 284 14 1819
32 -6.1848067921247285 5.1231421875252643 16.688650494038257 36 27 18 0.3736047509128288 21 1673 6 1376 20 1303
33 1.9606203476020165 -3.1456273766461096 19.269344702497378 85 76 63 0.88456547860476731 21 1751 6 1865 22 479
34 2.0502320816712647 -3.0024324624401091 19.295214926516344 135 125 113 0.34047551524850478 21 1754 6 1866 22 481
35 0.865566754705553 -0.50016880540944542 19.576061732261049 110 100 88 0.30151748303278941 21 1774 6 1878 22 587
36 0.865566754705553 -0.50016880540944542 19.576061732261049 110 100 88 0.30151748303278941 21 1773 6 1879 22 586
37 2.9165636330154752 -0.20905659300357779 20.231611239531926 47 37 28 0.54416343774799247 21 2204 6 1886 22 633 7 1565 13 2108
38 3.4156001641693261 0.12961823941187223 20.291634794172676 53 43 31 0.20559724447354299 21 1788 6 1888 22 500 7 1568 13 1900
39 2.8552640991904594 0.17531792949549138 20.170515758600317 51 42 28 0.25979463775244566 21 2212 6 1890 22 637 7 1569 13 1902
40 1.6051924789196739 0.5280057273291906 19.723160239682048 57 47 32 0.57718938500751593 21 1796 6 1895 22 595
41 1.1498625327249099 0.56995592625423863 19.533153605636713 64 53 34 0.68175196937364479 21 1795 6 1897 22 507
42 2.5565880821483877 1.1366608870624493 19.953932873426634 139 131 120 0.33764650836566157 21 1809 6 1903 7 1579 22 512
43 1.2682143173168434 1.1670014856088307 19.681278268169645 77 68 53 0.56451070598523223 21 1808 6 1906 22 606
44 2.9596243983175383 1.190227303265925 20.065224581710172 37 32 22 0.14898698954858147 21 2228 6 1908 22 600 7 1577 13 1622
45 2.9576137120576673 1.1893412374904861 20.061848403533027 37 32 22 0.13233601829888886 21 2229 6 1909 7 1578 13 1623
46 2.012287447223613 1.2900721691850634 19.969592253395394 55 45 36 1.0316719102537406 21 1813 6 1910 22 605
47 2.4175133756365432 1.2426318937479137 19.980850026314346 45 37 27 0.37406828595619368 21 2232 6 1911 22 601 7 1581 13 1914
48 1.8096117634471534 1.2896033506238807 19.785275401181671 47 38 29 0.14479877100825067 21 2236 6 1913 22 607
49 0.53495459947791246 2.4255521139507312 18.356814542260469 153 139 127 0.32625233518991364 21 1829 6 1926 13 1632
50 -5.2251046570131479 2.8107119997977854 18.44675632261858 50 37 23 0.63731517176278707 21 2246 6 1931 20 2040 5 525 14 2121
51 -4.9444409308109236 3.0677708136898079 18.474136131313411 50 37 20 0.67279338021589186 21 1834 6 1937 20 1857 5 526 14 2123
52 -4.381427531783511 4.8378834149438825 18.187040324110505 41 25 11 0.48560590200228404 21 1899 6 1954 20 1666 5 290
53 -4.9669875353925699 5.319973749914352 17.427089318550141 44 31 15 0.58029114602567022 21 2269 6 1957 20 1677 5 538 14 2458
54 -6.3007663870412918 5.1571468107435861 16.664405281209564 122 114 103 0.34864896342467233 21 1674 6 1958 20 1301 5 283 14 1821
55 3.8746079476320325 -1.8663676174608266 19.981701568577801 58 46 38 0.24478232372063469 21 2195 6 2001 22 579 7 1683
56 1.0247854813041763 -0.64778861475347882 19.622335779360029 77 67 57 0.41322368378922025 21 2201 6 2005 22 583
57 1.9721519225522202 -0.25502286430726034 19.712068826059351 149 117 95 0.57901071852776431 21 2313 6 2010 22 634 13 2106
58 2.9739580955171294 -0.0072735284084517885 20.213560669333155 126 116 98 0.27410587484736315 21 2209 6 2014 22 591 7 1692 13 2111
59 2.4698636850370672 0.91149527372351979 19.905584212564367 46 37 26 0.78730793931508691 21 2329 6 2019 22 645 7 1695 13 1614
60 1.393247484553497 0.95613008933120047 19.55052957265541 61 52 38 0.47371179229132271 21 2220 6 2020 22 646
61 1.1207439617587689 1.3053325385342471 19.710134030274673 49 41 28 0.20595952440040222 21 2333 6 2022 13 2124
62 1.6376628064363383 1.2738360238309969 19.740202292739877 43 35 24 0.16517765311164662 21 2231 6 2023 22 647 13 2122
63 -3.8345554291233657 3.0675329504075961 18.054981123989457 139 102 61 0.33787570998321792 21 2250 6 2045 5 423
64 -0.83041559097512474 3.3209796642750291 17.09343647543179 32 29 14 0.97271358955770104 21 2260 6 2051 13 2133 20 2198
65 -3.4664726629098306 5.221974742928122 17.818970279631142 29 20 11 0.87801886073962121 21 2267 6 2056 20 2068 5 623
66 -6.4061765840717753 5.8832266677480138 16.687799302129683 45 36 31 0.63405122668254399 21 2274 6 2062 5 446 14 2144
67 2.5638655953448088 -6.3625136580480381 19.036707229920982 145 125 100 0.40859026704879575 21 2303 6 2073 22 627
68 1.7583065648818637 -5.3640414028195167 18.766638904267072 154 106 94 1.0985479098568183 21 2371 6 2074 22 716
69 3.9865072792367062 -5.446856071513035 18.928640977612567 129 78 61 0.60367906672634908 21 2372 6 2075 22 672 7 1740
70 3.357338778213955 -1.8466624416999871 19.986019435895194 53 44 30 0.46611687201592855 21 2309 6 2079 22 675 7 1782
71 3.4207430737447617 0.83111522877825805 20.194281048373519 42 38 27 0.23938278936424826 21 2324 6 2088 22 682 7 1748 13 2116
72 3.4207430737447617 0.83111522877825805 20.194281048373519 42 38 27 0.23938278936424826 21 2325 6 2089 22 681 7 1747 13 2115
73 2.9040196043607884 0.88552937016946542 20.066035933157028 42 36 27 0.21938621380237663 21 2384 6 2090 22 684 7 1749
74 3.3064814076018916 1.089800123708208 20.238895310368658 97 93 82 1.3243907189585669 21 2226 6 2091 22 597 22 687 7 1696 13 2118
75 3.3269552230854171 1.0885195585585459 20.280983581031258 97 93 82 0.96977697244310934 21 2227 6 2092 22 598 7 1697 13 2119
76 1.8357567210449042 2.9847451507450371 19.158385615902805 83 62 41 0.56931205915455485 21 2396 6 2101 7 1754 13 2131
77 1.216134625499836 3.009693897623944 18.840946357232522 70 46 34 0.168961396277201 21 2344 6 2103 13 2320
78 -1.4533743145777087 8.4424471064685278 18.851228552438926 111 36 40 1.360555015351449 21 2412 6 2114 13 2340 20 2099
79 1.9785764338938567 -6.389458519150903 19.01499674527803 141 124 106 0.22208211986427662 21 2369 6 2119 22 696
80 3.2975553111309326 -6.4148368680537438 19.195968663242372 129 113 98 0.47703625238280128 21 2370 6 2121 22 669 7 1774
81 3.0890105712568889 -1.4112400122334776 20.004210262817498 121 109 93 0.30861379018609286 21 2423 6 2130 22 677 7 1784
82 1.7532741493630182 -0.58212836533656998 19.793848813695533 64 55 46 0.38273432654678546 21 2425 6 2131 22 705
83 1.7532741493630182 -0.58212836533656998 19.793848813695533 64 55 46 0.38273432654678546 21 2426 6 2132 22 706
84 3.4160296638632386 0.35400629358670144 20.299739248656088 49 41 32 0.16833333355743116 21 2429 6 2138 22 707 7 1785
85 -8.4988052240767864 2.7659860180353837 19.254649418076784 44 36 26 1.0738008342329188 21 2390 6 2144 20 2168
86 4.2796456545517616 2.8879612957202019 19.527373299135657 50 31 25 0.66275976836966088 21 2397 6 2145 22 689 7 1788 13 2319
87 -5.9734622972912632 6.9565802620672024 17.070596661874905 19 14 10 0.77900459941969724 21 2407 6 2151 20 2201 5 708 14 2658
88 -2.1586631494737532 7.973039525838086 18.94280406307039 55 19 23 1.0331813672041159 21 2409 6 2153 20 2218 5 714
89 -1.7563788583415991 8.5988634593440523 18.706804738372465 16 13 4 0.59254456828194679 21 2448 6 2157 20 2226
90 2.6049813808600923 -7.232860113961725 19.194385265418621 111 101 87 0.60441509377489577 21 2452 6 2164 22 713
91 4.1995457104064497 2.4826119328251903 19.285851854250613 78 58 51 0.20750875419666789 21 2459 6 2178 22 717 7 1809
92 -4.5413083672248682 4.9435478099237828 17.873347594506235 44 32 20 0.54600577213542212 21 2442 6 2186 20 2338 5 698 14 2764
93 -5.2356947079046883 5.2858358507673042 17.505343357598466 96 81 61 0.7244135677137129 21 2443 6 2189 20 2292 5 738 14 2860
94 -3.7760300113493015 5.2359091001251725 17.820896249892595 107 90 69 0.56982635498088041 21 2470 6 2203 20 2340 5 766 14 2921
95 -3.7770713200378849 5.2306041546744249 17.813731443832335 107 90 69 0.51881782610832317 21 2471 6 2204 5 767 14 2922
96 -4.4299532791928593 5.277402000973396 17.695610743509775 104 88 65 0.30525254412681613 21 2472 6 2205 20 2380 5 765 14 2919
97 -4.4292245033108086 5.2729288943026074 17.680206160490091 104 88 65 0.32655613673240858 21 2473 6 2206 14 2920
98 -3.1308214809830464 8.129506956828239 18.883036026871928 24 13 9 1.532908696809224 21 2475 6 2208 13 2549 20 2351 14 2935
99 -5.7411837164639365 2.9730235491561379 18.394374493673794 164 123 71 1.6032141913254196 21 2498 6 2222 20 2405 5 804
100 -2.5885548886892815 5.2102733554334764 18.043003672139278 97 78 41 0.8670934548535264 21 2503 6 2224 13 2676 20 2413
101 -1.9692600048166593 8.4516947941998648 19.246835510345623 122 51 49 0.11801675446796836 21 2490 13 2614
102 -6.1510811030039081 4.4969875374127755 16.372165042089556 29 20 15 0.80838633103740209 21 2502 6 2237 20 2392 5 782 14 2972
103 2.423290925254427 -6.7651986399545061 18.905224048141104 135 120 100 0.30577877843979406 21 2522 6 2244 22 741
104 -3.2360469135780239 4.5943129222138035 18.181442874627756 34 24 15 1.8758309244172444 21 2520 20 2429 5 820
105 3.6037892697021476 -4.4733523553021284 18.154311631051819 182 122 111 0.77661218269512444 21 2533 6 2255
106 -7.8134990766095829 1.8225254269084097 18.747085324983605 129 112 84 1.2824873874665712 21 2525 6 2257 5 832 14 3047
107 -7.8194264008723193 1.8163348018936341 18.760551107329942 129 112 84 1.2065122348446538 21 2524 6 2258 20 2436 5 831 14 3046
108 -4.4764164982507602 2.4174348889487485 18.096949861092973 51 42 27 2.0209588140517529 21 2526 6 2259 20 2438 5 835
109 -5.0104246089274378 3.520789994706687 17.632548513037303 163 118 63 1.4265254755980923 21 2536 6 2260 20 2449 14 3031
110 4.4020170016192779 -7.840955232293628 18.773380962828 58 49 40 1.0711206926280634 6 1838 21 1731 22 441
111 4.3502805732829719 -7.2288294758158935 19.468367680866226 64 54 44 0.65550681078962225 6 953 21 1738 22 449 7 1107
112 12.328939875116125 -1.380147154292148 23.263071000012154 36 23 15 0.23359607976273855 6 1870 22 483
113 12.322084987919936 -0.75846141944824452 23.404501068911678 39 27 10 0.18403794983259628 6 2006 22 485 7 1158 7 1562
114 3.0019605356197414 -1.2759956823587413 19.939759779330075 121 109 96 0.17934002531412183 6 1025 21 1770 22 487
115 3.9667933515214724 0.10496469286992072 20.397428105715171 40 34 28 0.13911664545693969 6 1889 21 2213 22 496 7 1566
116 4.0275142179962877 0.51552505079424549 20.304788173724013 39 29 26 0.28072960761815385 6 1896 21 2218 22 503
117 3.4997813335010135 1.055437334644155 20.160011519139143 31 26 22 0.22124484578675366 21 1618 22 508 7 1173 13 792
118 2.1976977203165329 0.9858585114820072 19.798080998707857 54 40 33 0.46199166843294714 21 1799 22 510 7 1174 13 1616
119 1.6316359755364136 0.96358544526584944 19.675753145020636 47 36 29 0.36046030607805518 6 703 22 511 13 794
120 3.8829798774978315 2.6180991437451167 19.195070748226655 41 25 26 0.45545991133366748 21 1839 22 516 7 1177 13 1630
121 4.6144438009707009 2.8636745853053815 19.331304125290696 47 28 24 0.10726713950613807 21 1649 22 517 7 787
122 12.333296624047147 5.460173631526418 24.911615933378652 28 17 7 0.47314532993575514 6 1952 22 519 21 2348 7 1184 13 1651
123 3.8102810727479213 2.7525674371025892 19.257049145498918 67 48 48 0.2371593483575736 21 1645 22 520 7 788
124 12.086726139734163 5.8244861722251127 24.95778043809953 83 70 63 0.43483802574487468 6 1192 22 523 7 800
125 12.086726139734163 5.8244861722251127 24.95778043809953 83 70 63 0.43483802574487468 6 1191 22 524 7 799
126 4.9973951835612169 3.4172824066182641 19.081708596030239 160 126 98 1.3508576932773859 21 1854 22 525 7 1185
127 12.162795894078613 6.0663775769715134 25.167547744320352 90 76 69 0.26878694717697044 6 1216 21 2268 22 526 7 803
128 3.5579743896873746 -6.8943437079694778 19.343463926084318 145 128 113 0.15965107814610122 6 1845 21 2181 22 563
129 4.2449127021779889 -6.4210246452922055 19.428124532577339 156 140 125 0.3768061327065268 6 1849 21 2184 22 568 7 1537
130 4.4068576841874743 -5.5139774723243331 19.038137360456975 145 97 75 0.22428536321481871 6 1997 21 2304 22 574 7 1677
131 4.2194655467194222 -2.2500073234203359 20.32900281941215 172 107 86 0.26100394307797853 6 1867 22 576 7 1556
132 4.3722520371141362 -0.09809139260981932 20.531208635028655 83 73 63 0.23123893667451925 21 2208 22 584 7 1688
133 4.0664934781053397 -0.070834042467836839 20.426599119356709 123 113 99 0.36302847315269682 6 2013 21 2207 22 585 7 1689 13 2109
134 4.5147972788933188 0.083818496129819786 20.466060497147147 38 33 29 0.43757912462580806 6 2015 21 2214 22 588 7 1691
135 3.5102095512331575 -0.046068878882272526 20.347962858633554 91 79 74 0.13387156097549124 21 2205 22 589 7 1690 13 2110
136 2.1232378200894604 -0.069013724497388101 19.747251403507232 76 58 45 0.50586996523115302 6 2011 21 1786 22 592
137 4.0751817631337603 1.1248846213269201 20.328604898731353 37 28 27 0.28207916370199931 6 1905 22 596 7 1573 13 1618
138 3.5252073688307588 1.1594412408992572 20.242139258156463 34 29 24 0.26837521737856601 6 1907 22 599 7 1575
139 1.7688474366644718 1.1272820185080008 19.698232047821818 80 67 58 0.30719341764900782 6 1051 22 602 13 1912
140 12.402971487754035 6.0689572772424301 25.182568296662492 28 15 9 0.3094043100372339 6 2052 21 2351 22 613 7 1192 13 1657
141 3.2442596594451794 -2.12986541027401 20.041844487871263 119 99 78 0.39045381270550572 6 2077 21 2307 22 631 7 1743
142 4.3388549152455065 -1.3940917077370225 20.128818409441472 76 64 55 0.45382349594938709 6 2004 21 2312 22 632 7 1685
143 4.0350686880464304 0.87396306343660146 20.283342116667953 46 35 30 0.51788365579560414 6 2017 21 2222 22 643 7 1694 13 1906
144 3.5950443828403591 2.8834506381439673 19.251805867000744 48 28 29 0.54084631460734944 6 2042 22 653 7 1590 13 1921
145 2.0788614648413022 2.8794852757262941 18.976199987037788 31 21 20 0.56784791953670499 6 2041 22 655 7 1753 13 2130
146 3.7896932760362443 -7.5414529674120301 19.222109935237778 79 67 53 0.58291956211467977 6 2163 22 664 7 1773
147 4.5321748064947691 0.60777938708296908 20.424675229039551 34 28 30 0.64514878339814241 6 2170 21 2433 22 708 7 1787
148 4.5321748064947691 0.60777938708296908 20.424675229039551 34 28 30 0.64514878339814241 6 2171 21 2432 22 709 7 1786
149 12.565258804129481 5.1030019516965934 25.223972836485672 108 87 70 0.82401788680088706 6 2182 22 712 7 1750 13 2321
150 3.9976123193605675 -6.5061934465534241 19.253495126104276 166 149 132 0.36127837584771005 6 2198 21 2479 22 723 7 1823
151 4.1956829495156871 -1.743505326876736 20.075353316090823 175 158 141 0.38315177962713332 6 641 7 138 21 1544
152 3.4626957434715395 0.60642221294608789 20.210290606493192 48 42 26 0.37977927849540966 21 962 7 177 13 779
153 4.4795569437442007 0.9488525885030582 20.36537287066929 182 157 98 0.10372128819831523 6 702 21 984 7 181
154 3.7316666692827516 -6.8179333672827465 19.324292156120276 74 62 48 0.59857625056471242 6 543 21 1442 7 659
155 3.8081262321822518 -6.5028461582177757 19.295819910082546 159 142 126 0.517786850218103 6 960 21 1450 7 663
156 4.4161841490778322 -5.6690923001055546 19.053352122660648 70 57 41 0.25973079301535745 6 966 21 1456 7 687
157 2.880469356443657 -2.5840935640911833 19.618441631812718 106 95 77 0.43575419425557432 6 597 21 852 7 709
158 2.880469356443657 -2.5840935640911833 19.618441631812718 106 95 77 0.43575419425557432 6 598 21 853 7 710
159 2.2583996282672096 -0.3831469291935235 19.811949395843605 106 94 72 0.081000540218762462 6 666 7 737 13 744
160 4.4163741240032532 0.14705318793280797 20.61562256060672 105 99 87 0.17163523216421483 6 677 7 740 13 754
161 3.8108882616786426 0.18104063268403864 20.380002135877696 104 94 76 0.12131155880006721 6 680 21 1587 7 743 13 757
162 3.0492683387591217 0.21625827954768825 20.107326402457822 109 83 70 0.28996679939901676 6 685 7 745 13 764
163 3.0492683387591217 0.21625827954768825 20.107326402457822 109 83 70 0.28996679939901676 6 686 7 746 13 763
164 3.8814066048514713 0.57938742590425441 20.349668917984012 138 81 80 0.36361010927327092 21 1601 7 751 6 1040 13 1608
165 3.8778697788930945 0.57893197303985833 20.300787805604699 138 81 80 0.16593553991658225 6 1039 7 752 21 1602
166 3.2339593768978547 0.50381414832022775 20.273304718877664 60 45 33 0.19249063170444367 6 693 7 753 13 773
167 3.5853855685931322 0.59001301071343337 20.196096933937753 134 76 75 0.29270133997157077 21 960 7 755 13 776
168 3.5853855685931322 0.59001301071343337 20.196096933937753 134 76 75 0.29270133997157077 21 959 7 756 13 775
170 4.1787914327578246 0.97272145123933929 20.264163901240071 176 157 114 0.29731617845564118 6 706 21 1615 7 765 13 788
171 2.7236319076428668 0.95415557256532813 19.957128964771933 55 47 35 0.25630805511416022 6 704 13 791
172 3.3708512469943259 -6.8072416309458506 19.264823854446302 84 72 56 0.39684524096016527 6 957 21 1441 7 1109
173 3.5014188441023388 -6.4926502082896667 19.230353411583316 151 138 120 0.44648483362842151 6 959 21 1741 7 1111
174 10.963190749732998 -4.2828446231560449 10.024355756879952 147 126 96 0.3741559843860805 22 451 7 1114
175 2.1559833540712092 -0.25950725484269022 19.787154772361877 89 70 48 0.87576009058576754 6 1035 21 1578 7 1160
176 4.401008826097021 0.34530253063229305 20.442777403382131 139 132 122 0.3602197532005339 6 690 21 1593 7 1164 13 1599
177 4.0492803480308899 1.0100809762743101 20.249815556160112 44 40 30 0.34986532098842371 6 708 21 1617 7 1171 13 790
178 4.2260368065894403 -6.7053758034256417 19.403301369675255 146 132 105 0.30651562517914394 6 1846 21 2182 7 1532
179 4.580314920480034 1.2886103198637031 20.145279201347989 62 52 40 0.35145930419014343 6 1914 7 1574 13 1911
180 2.3048421210196928 1.4597802275247993 20.063690145261663 69 58 40 0.57231010837673113 22 649 7 1583 13 1916
181 12.623490625998487 8.2046583109046693 25.528786218475346 110 84 61 0.29453697701998793 6 2059 7 1602 13 1931
182 2.4684139292284075 -0.32921134705317212 19.967732926394365 59 52 33 0.46135120172679905 6 2009 7 1687 13 1893
183 13.578058375064401 7.23276268666402 25.404408388283642 124 101 74 0.58721909112849446 22 619 7 1704 13 1928
184 3.3074160558231802 -7.6729502948844583 18.215267124844541 77 68 55 0.74672599126550743 6 1988 7 1728
185 3.0616615860046221 2.8340422431756016 19.144760668507818 42 33 19 0.65070956935564406 6 2100 7 1751 13 2128
186 3.3405460649870857 3.0028499351984381 19.294849444692773 107 78 41 0.47643010682862269 21 2398 7 1752 13 2129
187 14.079627966446239 8.1941254195917477 25.499421132721611 60 37 21 0.47222303970719631 6 2191 7 1755 13 2137
188 4.1305601627415616 -2.104661215246391 20.133017164781762 178 116 104 0.25010498910947437 6 2128 7 1780 21 2422
189 12.224824768495719 6.5089275772150481 25.03117868820005 126 105 79 0.68733217781146494 6 2183 21 2474 7 1810 13 2440
190 11.83283179741068 8.2363228375786566 25.141892530605652 70 41 18 0.68239646821770983 6 2226 7 1812 13 2534
191 12.573849534742251 7.4596560509831669 25.597608801195971 128 107 80 1.1240670724839943 6 2251 7 1858 13 2673
192 4.4459602506113267 4.019114107194615 18.974291191736626 185 142 100 2.5201423941914012 6 2268 7 1872 13 2722
193 11.859472875921815 1.668329133556133 23.560003844485802 46 36 20 0.73852986302997758 6 1053 21 2243 13 793
194 -4.012068185072394 4.8383852193250645 18.32126890314154 43 32 19 0.35080850817007375 6 1953 13 1090 5 441 14 1822
195 7.5638605149242535 9.2052806137383261 10.735301255412697 204 186 162 0.81048695636406864 7 1501 13 1309
196 -3.7214613984571856 8.4003798718731435 17.388513053463729 135 44 50 1.4489574016755864 6 1825 13 1710 14 1895
197 -4.6187706387080549 8.6102690885219868 18.061390141447578 87 17 2 0.50569928708795631 6 1977 21 2146 13 1716 20 1719 5 489 14 1887
198 8.6306707333065678 8.5986270926700588 9.5182054720519762 198 186 164 1.2518231634510668 7 1644 13 1947
199 6.2315427776180226 10.515208346244641 15.545111499717075 187 123 65 0.28103054271971817 7 1725 13 1959
200 -0.64711344451092179 5.2104360319932672 18.572831481900149 178 158 133 0.52423474639642509 6 2107 13 2141 20 2207 21 2266
201 8.0040586789455066 8.3042689084403882 14.440310116283403 49 37 25 0.13537204879917364 7 1761 13 2148
202 8.0040586789455066 8.3042689084403882 14.440310116283403 49 37 25 0.13537204879917364 7 1762 13 2149
203 9.8279627736682791 9.4453781273681265 9.2630152701852531 195 183 160 0.59590856585247631 7 1718 13 2163
204 -2.8337921548163427 5.3437245592890736 17.991677092927926 173 153 122 0.53318430314030163 6 2109 13 2327 20 2203 5 629
205 9.9476940102369884 6.8052992320220875 4.5577191126158993 82 74 63 0.13132078531706456 7 1792 13 2332
206 7.9496737706676424 9.3265213602280781 15.012160551345886 174 154 142 0.53606144889481866 7 1799 13 2447
207 8.2486751586742688 7.3912982471057838 13.22189458953666 208 189 174 0.69524711294418062 7 1828 13 2539
208 8.6231421138351614 6.9402493365835278 13.384893547047341 127 117 107 0.42651812871141198 7 1847 13 2607
209 9.5089709308987196 8.3816713824976592 9.8948609647377967 216 205 185 0.051941575358026383 7 1850 13 2612
210 6.5418360210939159 10.249635973533874 15.410996230944406 203 139 80 0.1274960325649985 7 1852 13 2617
211 -0.49958355297267742 7.8905362324954122 18.96339938913825 48 35 26 1.4421063964266896 6 2241 13 2678 20 2397
212 9.2303969741762426 10.699448785060838 13.962789089470331 92 60 36 1.192197778418508 7 1866 13 2698
213 -6.3746858411137284 1.2635699091058665 18.895670474647599 202 186 159 0.0092367176375432215 6 714 20 1247
214 -6.3289246335673699 5.175802697193725 16.705272351840126 218 210 198 0.30785135296088284 21 1675 20 1302 5 282
215 -6.3978973478695931 5.7677529448123019 16.797523002021599 47 39 31 0.4438696397736176 6 1962 20 1327 5 293 14 1829 21 1686
216 -5.3076079382676742 4.8290332473016031 18.193884603941203 153 136 128 0.36062747858466099 21 1893 20 1653 5 279 6 1265
217 -4.9448746627465567 8.6573733976853315 18.052096999066482 109 27 4 0.23936373665156235 21 2145 20 1718 5 487 14 1886
218 -5.0184302207206208 1.9275062878929166 19.599021131155638 206 186 159 0.99415505747114719 6 720 21 2240 20 1852 5 262 5 522 14 1779
219 -4.73173758674106 5.3351243830379929 17.531508917766367 59 47 34 0.2598957340934534 6 2057 20 1885 5 539 14 2459
220 -3.1842208687641405 4.9792208792993184 19.283583119432169 99 83 67 0.90002103340382378 6 2053 20 1893 5 540
221 -6.9742049471580323 2.0830250464258455 18.550887451737236 83 73 66 0.5687383890551827 6 1923 21 2336 20 2032 5 410 14 2112
222 -2.8297630740818414 5.3419757173183742 17.989572397230429 209 183 149 0.58200186099274054 6 2110 21 2352 20 2202 5 630
224 -5.6880571869344818 4.5483543549254284 16.534177303061092 104 94 82 0.90793272795730162 21 2441 20 2286 5 734
225 -1.6040634183760751 8.0241002129973733 19.256975880443644 97 23 30 0.54107548816218665 21 2447 20 2306 5 752
226 -8.9481913409279734 2.4078873882281493 19.261418567526071 149 136 116 0.49677257628992144 6 2177 5 679
228 -4.0818889302939549 4.8950059636912391 18.072509409595401 101 88 80 1.0757149414780987 6 2184 20 2339 5 739 14 2765
229 -9.2688195391543378 1.9900060123389447 18.636968384536075 47 40 32 1.5349722601434985 6 2220 20 2389 5 760
230 -5.2905992778155504 4.5301565838913227 17.132919631854623 43 34 27 2.0521458658096621 21 2501 20 2411 5 807
233 -6.3316894927086267 2.9308488267068324 17.07676558821279 46 38 30 1.6517598461682961 6 2264 20 2447 5 834 14 3051
234 -15.668902133668855 6.3022382935327617 15.487747738167839 133 123 111 0.37236254484824 20 1621 5 270 14 2128 4 481 15 1377
235 -15.668902133668855 6.3022382935327617 15.487747738167839 133 123 111 0.37236254484824 20 1620 5 271 14 2127 4 480 15 1378
236 -10.248214731999061 7.6503941286266306 16.475493491225155 32 27 16 0.19254503318890084 20 1322 5 302 14 1841
237 -8.4058039268876055 7.3401275932976588 16.910437760862937 47 36 34 0.80432832125905784 20 1336 5 308 14 1347
238 -8.4058039268876055 7.3401275932976588 16.910437760862937 47 36 34 0.80432832125905784 20 1335 5 309 14 1348
239 -19.638920489533636 11.530162910351894 14.068973242039826 79 50 39 0.85390974047213197 20 1307 5 310 14 1864 4 272 15 1403 19 1701
240 -19.140094889482807 11.523816498171975 13.594397561185739 100 64 46 0.77611985322505439 20 1310 5 315 4 404 15 1044 19 2060
241 -6.668417246565352 7.4569990772330348 17.101009728076153 18 12 11 0.35223277888097854 20 1354 5 320 14 1855
242 -6.4817362343042388 7.4487268907456006 17.139673281594071 24 18 18 0.36169813283028435 20 1356 5 322 14 1857
243 -17.460988144334287 11.698861986246909 13.188813128311924 93 54 45 0.29087349335841045 20 1337 5 325 4 422 19 2078
244 -17.460988144334298 11.698861986246914 13.18881312831193 93 54 45 0.2908734933584462 20 1338 5 326 4 423 19 2077
245 -17.027946679992741 11.600605603027384 13.177997704048696 50 23 6 0.31944121376326706 20 884 5 328 4 302 15 1060
246 -16.583730936537314 11.530437936646521 13.220106735926532 60 51 44 0.045959658494685696 20 887 5 329 15 1061
247 -16.376332847417334 11.573756038661594 12.823685205530758 54 44 34 0.37137042012222515 20 1347 5 333 4 306 19 2093
248 -17.498557723286108 11.908244774153578 12.087628078017506 95 52 31 0.24236473152874621 20 1344 5 334 15 1059 19 2340
249 -19.452552767510941 3.6886251502105423 13.646714950971608 43 33 23 0.53242542428653461 20 1846 5 391 4 363 15 1704
250 -6.981745929499577 2.0853054052527935 18.586944498994846 68 50 29 0.24993870256228234 20 2033 5 411 14 2113
251 -13.8315725848681 5.0332401897359054 15.202599389269222 49 32 22 0.50594693176677719 20 1262 5 421 4 477
252 -15.643835343882225 6.7204061927045657 15.688373163540966 126 116 104 0.39613054547008025 20 1274 5 424 4 381 15 1939 14 2437
253 -15.645303508858035 6.7189508307008561 15.687884187360424 126 116 104 0.42603937807678527 20 1275 5 425 14 2438 15 1940
254 -13.736103525154563 6.2162472411045471 15.555192111961208 135 126 111 0.57996890649260235 20 1630 5 426 14 2130 4 383 15 1942
255 -22.364437026568201 10.041471283725965 13.752941462642696 102 74 50 1.4941462235946956 20 1280 5 435 14 2462 4 379 15 1709 19 1009
256 -10.938615861393052 6.988955231611329 16.173858726515263 54 44 35 0.317619515769338 20 1647 5 438 4 500
257 -21.706234794382929 11.327795619379216 13.058103003773617 74 42 14 0.58153247515478557 20 830 5 447 4 256
258 -20.307043943249401 11.575898777975894 13.424277178540123 95 59 33 0.49083885167862445 20 1871 5 455 19 2487
259 -12.587521443864498 8.9275639075468796 15.981179387129531 103 85 70 0.67927926176291709 20 1329 5 457 14 2157 4 428 15 1754
260 -12.318054194945113 9.1346424302736313 16.107853337174539 154 142 129 0.33262568087874295 20 1679 5 460 4 517
261 -12.531797994209967 9.289804274460602 16.011337853384006 98 78 68 0.5768760214371278 20 1680 5 461 4 516 15 1767
262 -17.648356018035503 11.207961432889849 14.661203547255781 115 86 72 0.22731775439288765 20 1667 5 463 4 414 14 2168 15 1417 15 1735 19 2348
263 -18.026006726412703 11.360545668445841 14.080652410454178 51 23 12 0.35151624733016645 20 1669 5 465 14 2169 15 1732
264 -18.231147587740629 11.495752526875448 13.728341378010988 96 61 41 1.1589076620651395 20 1671 5 468 4 561 14 2494 19 2334
265 -17.880241207655928 11.498803644529266 13.931998667385706 102 61 41 0.343345816285827 20 1674 5 469 14 2174 4 495 15 1739 19 2501
266 -16.89480340185872 11.280419659095415 13.745413793346717 100 82 70 0.44067174018055771 20 1886 5 472 4 503 19 2505
267 -16.953622045682305 11.724560850538049 13.18651154121458 107 85 70 0.61774034582982174 20 1341 5 475 4 425 15 1429 19 2088
268 -16.215842223881232 11.804486520585366 11.995215765209434 45 35 29 0.3232301594719279 20 1693 5 480 4 431 19 2092 15 1760
269 -15.941563030564451 4.0232366220435152 13.910199696997438 48 36 24 0.35007757602508904 20 2030 5 517 14 2640 4 470 15 2101
270 -16.635493453128952 4.2309263487682047 13.630080387620113 180 149 121 0.60881057058019328 20 1605 5 518 14 2118 4 366
271 -16.547975185026853 4.5032949022341873 13.901492109559419 56 36 23 0.7036286988679723 20 2031 5 519 14 2434 4 471 15 1934
272 -10.825415603111296 6.753050630855796 16.443518236558837 49 45 33 0.3576640885298934 20 1864 5 530 14 2140 4 497
273 -9.9443448771809884 7.5750367026991174 16.561887602804731 26 18 14 0.37299478939552499 20 2058 5 545 14 2655
274 -16.983089526322253 11.247845629156085 14.217712410525873 77 50 40 1.2956144954073696 20 1882 5 560 14 2662 4 562 15 1970 19 2507
275 -6.7648556546472793 7.6468474957949137 17.164977279480194 37 32 29 0.67555725192674732 20 1903 5 562 14 2480
276 -6.3291108059608074 7.6242998073848325 17.234259875814743 39 34 32 0.34867418443896653 20 1906 5 563 14 2485
277 -5.9315150628555982 7.4071414342524484 17.181681428564499 17 11 10 0.62686750118603629 20 1907 21 2281 5 565 14 2482
278 -15.971514846348809 12.081409188687637 10.935203417400141 37 27 16 0.52291103680144868 20 1905 5 575 14 2202 4 520 15 1769 19 2351
279 -13.131171083343759 5.0644144740993857 15.411529467227005 178 163 135 0.36709241711618157 20 2172 5 610 14 2758 4 543
280 -17.358342657280438 10.226399032358627 15.097138418830506 38 21 8 1.1196160623087372 20 1870 5 621 14 2782 15 2221
281 -18.194157016502349 11.380505645998081 13.942550389055938 44 21 12 0.3617871236328733 20 2056 5 633 14 2491 4 560 15 1965 19 2637
282 -16.558065682245921 11.350182727296117 13.640588194779085 38 32 32 0.41185747977644538 20 1892 5 640 14 2666 4 565 15 1973 19 2509
283 -16.955441834017019 11.848806896699408 12.869721367409728 108 73 52 0.58883131657842103 20 1897 5 644 4 568
284 -4.9576537942928924 8.5225177309063387 18.550670853552727 98 8 18 1.3414687886765269 20 2083 5 647 14 2498
285 -2.2073344769140171 -0.5222542468240513 16.126153066507737 98 89 80 1.2508892638118547 6 2081 21 1772 5 670
286 -14.965737998885777 3.0726912125652035 15.946284697270764 223 170 122 1.2147616295111752 20 2262 5 673 4 652
287 -14.965737998885777 3.0726912125652035 15.946284697270764 223 170 122 1.2147616295111752 20 2263 5 674 4 653
288 -2.3790993179205646 3.3224339451503844 17.530019876346717 38 25 21 0.070874303735954533 20 2337 21 2400 5 689
289 -22.470850863167666 11.119328355687573 14.006977119809205 124 98 71 0.54969105789592676 20 2279 5 697 14 2779 4 607 15 2214 19 2734
290 -21.663284936245681 11.839132465153716 12.033204704676471 68 32 8 0.49052802204390678 20 2184 5 702 4 611 19 2736
291 -16.326428162389121 11.184113358363 14.038060341585581 37 31 32 0.14931681104846703 20 2197 5 711 15 2120
292 -16.175109140736083 12.401182229495104 10.053438557955504 98 56 36 0.94772102619191434 20 1912 5 713 14 2519 4 523 15 1771
293 -15.457406486232493 5.7293558248218535 15.37048854667346 40 30 18 2.4807263962895725 20 2328 5 730 14 2916 15 2345
294 -5.556374030137774 4.4506079779157961 16.212855147937599 59 49 39 0.81621246188854268 6 2185 5 735
295 -9.9752472194833839 7.3732993843121006 16.6098982216742 24 19 15 0.60527267898155446 20 2291 5 741 14 2926 4 703
296 -12.975421507501105 9.1446850905826604 16.048476986212062 95 78 70 0.84594970488364307 20 2194 5 743 14 2866 4 670 15 2308
297 -19.586456946351564 11.645017302336742 12.777185210686357 107 62 30 1.280618872690054 20 2191 5 745 14 2787 4 662 15 2112 19 2738
298 -19.077275557796767 12.104136692701076 11.44806482067996 116 74 49 0.42842914615570871 20 2196 5 747 4 664 15 2224 19 2739
299 -5.3760634739243329 7.9720518539804051 17.702229293498135 21 11 9 2.0104386032198063 6 2192 20 2348 5 749
300 -10.629722536304259 4.5996721351489773 15.251249612539263 31 22 15 1.3719888061370356 20 2329 5 762 14 2970 4 723
301 -11.859455117706664 6.8065171299467133 15.808970993245557 43 33 22 0.72851171402748494 20 2332 5 763 4 727
302 -5.6909293591767485 6.5813729281691353 17.021227099750213 53 43 40 1.3700863008587016 20 2344 21 2486 5 769 14 2930
303 -7.1263756075139062 7.3073824497735886 17.21881532907496 24 19 15 0.92593421149598676 20 2342 5 770 14 2931
304 -3.1209970041395594 8.1280225886197019 18.877511060200348 20 10 8 1.3516639633559935 20 2352 5 773 14 2936
305 -13.916830427093416 4.7435317815974027 15.421750806432961 64 48 35 1.6198225167439722 20 2371 5 781 14 2967
306 -10.312912604482664 1.9191652990980959 18.475836957658291 184 158 125 2.202688908915766 20 2423 5 796 14 3026
307 -14.761403065465544 3.0097223432489262 16.724985554664759 44 35 26 0.95850073368510746 20 2400 14 2992
308 -2.7756284903506216 1.1933647748956142 16.605310419410426 212 185 155 1.4286391937330496 20 2426 21 2496 5 800
309 -2.7756284903506216 1.1933647748956142 16.605310419410426 212 185 155 1.4286391937330496 20 2425 21 2497 5 801
310 -16.142290703196466 5.0570779389278675 14.263224361770572 47 35 23 0.78184463710087271 20 2401 5 802 14 3014 4 742 15 2452
311 -6.6627598759397939 2.5456491344932703 18.442851335128822 54 44 35 0.89475605460923846 20 2403 21 2517 5 803
312 -2.7350318779435443 3.3522892812898104 17.071588357977653 193 142 89 0.3590157188501793 20 2428 21 2518 5 818
313 -2.7350318779435443 3.3522892812898104 17.071588357977653 193 142 89 0.3590157188501793 20 2427 21 2519 5 819
314 -4.6596808127923222 2.4769254741603906 18.469042111482345 46 37 28 1.4265115099841594 20 2439 21 2527 5 836
315 -14.10867864889666 8.5307312777848008 15.107765702417364 151 136 117 2.4480554529727598 20 2410 5 840 15 2469
316 -4.5586807518841326 6.2811367200825448 17.198520787563119 18 12 12 1.4858193212893742 20 2443 5 841 14 3035
317 -18.801491941210358 10.875636355628034 15.130519900125545 46 36 28 0.19259193357598856 5 304 14 1362 15 1034
318 -18.801491941210358 10.875636355628034 15.130519900125545 46 36 28 0.19259193357598856 5 303 14 1363 15 1033
319 -4.5238693226982152 9.1285555165990573 10.297674232715378 113 95 85 0.64374668382513878 13 1777 20 1766 14 1497 19 2233
320 -3.4425360836512606 11.861187335498578 11.726189232030812 61 55 55 0.51875267281677939 20 1539 14 1606 19 2283
321 -15.892320082180365 1.7006483990330348 16.607798641530206 245 231 219 1.2413517490383583 5 510 14 1747
322 -21.687888406724806 4.205420713171848 12.807129719626159 146 114 83 0.39885170296792993 20 1220 14 1755 4 219 15 1361
323 -21.902302474278425 4.2673714922114563 12.607764101024399 75 54 23 0.32428247434773866 5 249 14 1756 4 218 20 1594 15 1701 5 390
324 -9.7045212346935958 2.1410690515355317 16.214228203750206 51 34 11 0.32461090095744638 20 1244 14 1757 4 238
325 -9.7045212346935958 2.1410690515355317 16.214228203750206 51 34 11 0.32461090095744638 20 1245 14 1758 4 237
326 -21.953186175515043 4.433534727603921 12.670767362685853 189 156 121 1.1870924081120717 20 1596 14 1759 15 780
327 -16.91338707161043 4.2221813730525737 13.612129314748843 200 169 154 0.25410284499353458 5 257 14 1787 4 228 15 1372
328 -22.014008755535734 10.125601707685837 12.916173562655709 176 148 124 1.7686733583826257 5 529 14 1832 19 2478
329 -19.661029548978814 11.553346331531351 14.081110919422239 132 81 61 0.96530801180435277 20 1308 14 1865 4 273 19 1700
330 -18.910453416766284 11.556587303652082 13.142582652319854 77 44 30 0.10403097203368671 20 1318 14 1870 4 408
331 -18.910453416766284 11.556587303652082 13.142582652319854 77 44 30 0.10403097203368671 20 1317 14 1871 4 407
332 -5.0228004037034317 8.9962984146711555 10.191736854365178 154 132 111 0.49476183099166393 13 1782 20 997 14 1941
333 -10.91608058365073 5.623122564773281 15.672048989529399 34 30 21 0.73714521987243486 5 527 14 2133 4 552
334 -12.557833691331474 6.7728780105974273 15.885062492568979 172 162 153 0.3846069648935595 5 433 14 2136 4 488
335 -12.557833691331474 6.7728780105974273 15.885062492568979 172 162 153 0.3846069648935595 5 434 14 2137 4 489
336 -15.972565888480577 11.75343533864325 12.178413128093812 103 99 100 0.33637442888926988 20 1694 14 2194 15 1763 19 2357
337 -2.0705835517319975 10.639544981854517 16.52279526109357 56 50 50 0.58340382702797489 13 1366 20 1964 14 2234
338 -3.7146713451234725 11.058960008226986 15.036826867081047 79 74 73 0.94934116939142621 20 1959 14 2244 19 2727
339 -11.198589465244478 1.7166297847005836 17.63348382855381 98 87 69 0.87478034130015381 20 1849 14 2416 4 367
340 -22.025722966315527 4.4666120404017811 12.54587284264198 194 161 128 0.89876671475558856 5 600 14 2422 4 464 20 2020 15 1932
341 -14.316243602251673 6.7354246020973969 15.784915243737265 159 149 139 0.37268285524875006 5 427 14 2445 4 386 15 1943
342 -15.998684512459942 10.203444830522413 15.331356832746293 55 36 29 0.68581449344260126 5 456 14 2479 15 1736
343 -18.157115582888853 11.207907373371606 14.130413150732403 127 76 50 0.9047183642033898 20 1875 14 2488 4 494 19 2335
344 -12.576044427341557 6.0892485887249164 15.68158321072702 171 159 150 0.55352374198216092 5 615 14 2644 4 609
345 -22.327395345788975 10.397234653327132 14.198310424010973 86 67 58 0.20773614984156688 5 436 14 2652 15 1711
346 -15.462248109218743 11.124984627617788 14.699043500214447 50 48 51 0.37314321651747628 20 2065 14 2664 19 2662 15 2123
347 -15.567275659352781 11.531152491227013 13.161357058357844 118 114 115 0.32398267187772745 20 1898 14 2669 4 571 19 2655
348 -17.836695597860359 11.976502466933722 11.061359068591873 157 97 60 2.051446323281616 20 1896 14 2672 4 502 15 1421 19 2493
349 -5.5460159790487342 9.7991981822570668 5.4349158014673664 159 138 109 1.1933688384494676 13 2513 14 2726 15 2037 19 2436
350 -16.581441554016379 3.976095385445189 13.84611888702012 66 58 50 0.63478045584260678 5 603 14 2755 15 2100
351 -15.053366700732045 9.1303541177860303 15.394456139818841 135 118 110 0.8552230568601763 5 700 14 2780 4 620 15 2223
352 -15.364347028693313 5.0545368388833962 14.697691626944366 210 196 185 0.37308616340549411 5 683 14 2853 15 2292
353 -14.28839476810727 5.0257052419552348 14.948864322221716 212 198 184 0.43302787365930973 5 684 14 2854 4 600 20 2271 15 2294
354 -5.5654190016432672 3.5661996003992771 16.237110087390359 41 37 29 1.2061479539863356 5 613 6 2148 14 2857
355 -17.316784450762874 11.558470162790172 13.816368329785716 152 134 120 1.8409229774410956 5 746 14 2875 4 700 15 2304 19 2793
356 -3.543685871203011 8.6045023203352713 18.875819830875386 147 26 36 0.89108243093695394 13 2618 20 2353 14 2937
357 -14.834346954840239 3.9520354206164101 16.016571130445019 230 176 138 1.2086449092479761 5 817 14 3012
358 -13.67298584909091 6.9298388118360448 15.84181655882905 63 54 45 1.0401931956087027 5 806 14 3016 4 745
359 -15.078424177322049 2.0626216476739643 16.422296454786046 240 214 191 0.86459764666954797 5 814 20 2422 14 3023 4 765
360 -11.794943365298645 2.0445457490130043 17.429881548579711 220 194 167 1.0220414792051069 20 2434 14 3024
361 -16.040356372994765 5.9351233758297886 14.640954786114163 55 46 39 0.95143733301887801 5 837 14 3030 15 2476
362 -16.169172997073812 7.882477737887001 15.487796241068605 51 42 35 2.5189770284163635 5 845 14 3052 4 779 15 2477
363 -16.812021883011766 0.87945749531774364 13.14017395688106 91 81 71 1.7133254390546646 5 242 4 204 15 1697
364 -19.545384224348378 3.5302908044105874 13.825121213342195 215 205 187 0.51814444460517672 14 2104 20 1593 4 221 15 1702
365 -21.491443054341463 11.963212567474351 11.708928269376681 145 101 82 0.33515250407260466 20 843 4 261 15 1015 19 2046
366 -17.840887617326576 10.010425540735683 14.776054370722864 49 30 26 0.52491088552027909 20 1646 4 266 19 2063
367 -19.77064684927991 11.497640536588314 13.469944224017544 117 71 58 1.41502663698025 5 312 14 1378 4 270
368 -19.85270838763638 12.055296459258168 10.190767712972365 115 82 65 0.35602346192923323 5 327 4 280 19 1066
369 -20.079513526223533 12.149686122219993 13.058083555370109 123 74 50 2.013950275322228 5 467 4 282 19 1699
370 -17.212861932193988 11.802397310908681 12.692238027437956 125 69 42 0.36636886449185524 20 889 4 303 19 2080
371 -20.957405347802947 -1.9668404700197151 13.474575865440698 176 159 129 0.77819855303085106 5 368 4 350
372 -21.786886571714266 4.0585741344100512 12.825620577880647 61 45 32 0.94102161106490401 20 1592 4 361 15 1360
373 -22.642094165323634 10.209526066189957 13.861729148872334 131 101 75 1.2010629928091818 20 1281 4 380 19 1010
374 -21.265391609369221 12.098711712879895 10.870088094863416 136 100 72 0.37165951627836674 5 466 4 391 19 2044
375 -19.280550213218195 11.575199426076761 13.362059917722878 116 68 55 0.30766983657642549 20 1660 4 402 15 1409
376 -19.280550213218195 11.575199426076761 13.362059917722878 116 68 55 0.30766983657642549 20 1661 4 403 15 1410
377 -18.864413551166415 11.340345057931206 13.999379797067295 58 26 15 0.58602776349725549 20 1657 4 405 19 2325
378 -19.847337438710408 12.058994623335998 11.253673666589986 150 101 69 0.44717507750300012 5 473 4 406 19 2054
379 -14.153290787613413 9.3939679758299288 15.655450492512179 100 84 69 0.44260570357005058 14 2158 4 420
380 -16.089848090727351 12.487706535748487 9.7309351863967688 117 65 44 0.83620293059308759 14 2211 4 437 19 2083
381 -24.864202252920929 13.688560425476014 12.623370747728684 96 59 40 2.1441659476875596 5 556 19 2311
382 -17.582366121558646 11.266422283711691 14.885022500155625 49 17 15 0.40858343684399018 20 1876 4 496 15 1740
383 -18.712212119690228 12.073080285368544 11.578554208327185 132 81 52 0.75104095022532358 5 567 4 498 15 1733 19 2492
384 -16.222261829472316 11.494821605251264 13.334895388746208 70 64 66 0.45866656636083458 14 2501 4 508 15 1753 19 2361
385 -16.403102679590106 11.754798171916788 12.492477589015071 45 37 39 0.41341974224064426 14 2504 4 509 15 1434
386 -14.456445697788759 2.5473135644480851 15.929982961542835 52 41 37 0.71295284657968028 5 513 20 2022 4 540
387 -20.648132903507832 3.3118411421127756 12.796454057215028 91 77 64 1.3971453924405892 5 671 20 2260 4 590 15 2289
388 -22.155632194245495 10.674066457339398 14.31375109423294 59 38 24 1.1910959737435631 5 736 20 2180 4 606 19 2733
389 -21.480445655844836 12.001196492792284 11.237061806993889 100 59 39 0.47196581497903467 5 705 4 613 19 2626
390 -16.179914197394712 11.502860641705931 12.992850710376365 52 46 48 0.49176009701603229 20 2067 4 628 19 2649
391 -15.094742544623218 11.561437808260333 13.070605741069045 39 33 37 0.19601702979395708 14 2793 4 633 15 2129 19 2745
392 -14.764728543298395 3.8543289196749786 14.607565873982617 38 27 21 0.65475637469538139 5 605 20 2267 4 655 15 2290
393 -22.595871437521311 9.9369296524648654 13.777385333322043 131 101 73 1.1543239918504924 20 2276 4 658 19 2781
394 -10.870926330547846 6.5377188204239349 16.000519749265901 26 20 20 0.71177139667931566 5 692 20 2281 4 695
395 -14.056102769469661 8.8094171618028021 15.87394047035197 154 138 119 0.62504652275598571 14 2862 20 2290 4 696
396 -16.850372639169418 11.036100033355813 14.991399727403641 65 50 51 0.86521020808335913 14 2872 4 698 19 2796
397 -21.55130724635595 10.732339526312611 14.312911400570668 65 42 36 1.0036146364614555 5 809 20 2372 4 724 19 2860
398 -17.641442315048181 3.5897218744421391 13.557758305572881 54 43 36 0.53692159487676994 5 795 4 741 15 2450
399 -10.832936873570848 7.3122539374993654 16.084990953545645 31 24 24 1.1038703849213396 5 764 20 2376 4 748
400 -20.083728911219371 11.317836169810947 14.244435306776833 126 79 57 0.68818364007005561 20 1297 15 1026 19 1089
401 -20.820370996591404 12.123024140892106 11.063622044328154 217 155 118 0.52598299141129246 4 395 15 1027 19 2313 5 558
402 -18.885177495992551 12.258905840922232 11.877245376602042 195 122 80 1.2151637213130693 4 291 5 330 15 1052
403 -17.405634754037706 11.517875102293232 12.984142030806911 51 39 35 0.87087877317278173 4 297 14 1390 15 1056
404 -15.16120009716942 12.181856652176036 10.771644802933096 68 63 65 0.5529418946796012 20 1363 15 1083 19 1766
405 -15.315138388232684 13.353169117965271 6.1106165679663809 159 82 35 0.63942538529617388 14 1966 15 1090 19 1724
406 -13.545964680763186 12.423552197002486 9.4622945664650864 67 66 72 0.52706229206124111 14 1931 15 1103 19 1801 20 1390
407 -14.926307683556193 9.3421976387813146 15.24221521862715 141 123 109 1.6941476326432106 5 307 14 1353 15 1416 19 1177
408 -15.386622882998308 10.894084440230722 2.7715703426247513 138 120 115 0.61507115809854596 4 430 19 2037
409 -15.615077753381371 11.255640673911024 13.962268504998423 92 86 90 0.22674482516065445 20 1684 15 1442 19 2376
410 -15.631525847742099 11.260837724858602 13.970289752215704 92 86 90 0.33970228753645193 20 1683 15 1443 19 2377 14 2184
411 -15.608158659432654 11.732050636544217 12.2877079813673 103 97 97 0.30985821462296059 14 1901 20 1696 15 1448 19 2365
412 -16.194495952560672 11.821083616256967 2.6993424922797757 75 50 47 0.30862369515120003 4 573 15 1746
413 -17.160927080520121 11.751072115752187 12.373163142612237 192 115 65 1.1557030257353265 4 424 5 570 15 1747 19 2346
414 -15.909160018309949 11.077481250139993 14.792840126239925 82 76 76 0.53570351587156206 4 507 15 1749 19 2519 20 1681
415 -15.523554442658185 12.007625958528664 11.154887601626067 73 69 70 0.37791868560201447 20 1908 15 1773 19 2359
416 -14.77283050297852 12.288937942500858 9.9487768801965277 71 69 74 0.46658347163937103 14 2524 15 1785 19 2367
417 -5.6607355989345773 9.8342920768543021 5.3468077027533445 188 163 129 0.59228047482703905 14 2599 15 1855
418 -16.252897989311009 5.4254032520584499 14.486315381095732 78 70 59 0.18065188363688572 14 2124 15 1935
419 -18.979143435125085 9.9489876814476688 9.2496676152234869 214 193 176 1.4389202875297162 4 483 15 1944 19 2479
420 -21.990479176381221 11.485381154459215 13.332342739550288 132 76 46 0.70140202286461273 20 2044 15 1949 19 2627 4 548
421 -21.882825139879714 11.602028650839568 12.818522623648022 135 80 53 0.38230165619125583 4 484 5 622 15 1951
422 -16.44436888451829 10.138411623294967 4.4046506804154184 186 196 225 0.6550173025986632 4 557 15 1954
423 -17.382889342542541 11.070910393459664 3.618328748249938 173 180 210 0.68633870469837999 4 623 15 1956
424 -16.153726680080407 12.256391301085632 10.43233730228445 179 100 62 0.39031240752381863 14 2512 20 2072 15 1982
425 -15.439810583074154 12.110995065695734 10.881584734765198 89 85 86 0.93584354796197533 14 2674 20 2074 15 1985 19 2650
426 -13.934734632111917 12.377915436685283 9.5605644467238715 66 63 70 0.2855897429185637 14 2532 15 1991 19 2527
427 -7.4541083583713252 9.3148357158598287 9.7613724057157718 81 60 43 0.85373103059591271 14 2531 20 1929 15 2017
428 -5.5614872168499243 9.9996668934830097 5.125537175639681 189 165 131 0.36244105536326388 14 2732 15 2041
429 -5.6442887902327596 10.496470488752564 4.5156335232570521 188 162 129 0.39955402523659594 14 2743 15 2044 19 2435
430 -16.47595376307898 10.731228877546833 4.527518825335699 169 162 170 1.6658646463282263 4 625 15 2115
431 -18.222285946785206 11.797132279559818 12.280815154688197 198 125 80 1.5768601534842805 5 712 15 2117 19 2740
432 -15.463540117371997 11.124313002574327 14.699608920684135 44 40 41 0.32904238426037719 4 630 14 2665 15 2124 19 2663 20 2066
433 -15.067612254756767 12.419408666847499 9.7745632682910575 94 89 95 0.59118448740965868 20 2080 15 2132 19 2651
434 -15.29089760350638 12.733639830001858 8.4904098927396259 105 99 99 1.0823882622319554 14 2808 15 2133 19 2646
435 -5.0133330185962297 10.595904021999024 4.3744946090847545 190 165 135 0.39661220624071913 14 2842 15 2183
436 -7.6698698597477692 9.396908535984215 9.6881043809430025 224 198 162 0.73612400110069443 14 2805 20 2222 15 2259 19 2564
437 -17.371474702609444 9.8291140204896479 15.321056225475765 202 161 141 0.77699398889028659 14 2929 15 2302
438 -20.631618439777011 4.7744432111760773 12.87322768433506 218 171 141 1.1587591261287866 4 755 14 3048 15 2451
439 -7.0284660586062744 12.705015347333068 7.4309610299172011 89 87 88 0.36619923569911561 20 1130 19 1397
