# 3D point list with one line of data per point:
#   POINT3D_ID, X, Y, Z, R, G, B, ERROR, TRACK[] as (IMAGE_ID, POINT2D_IDX)
# Number of points: 285, mean track length: 6.2789922480620159
1468 3.8581326083580314 -1.55060747258734 4.9114336219092234 190 98 72 1.6561612567101001 12 1228 40 1376 15 1234 28 2047 39 1686 14 1239 27 1751 3 1396
1469 4.0951104498254125 -1.5476909973647384 4.794875324794142 195 104 84 0.93862742985688319 12 1104 40 1377 28 1255 15 1236 39 1319 27 2415 6 729 4 1134 2 1095 3 626 1 1107
1471 1.152041971515974 -1.9139287351567584 6.0141578302748906 150 88 79 1.0257827635271115 11 1894 40 1382 13 1264 37 1185 28 1666 9 2135 26 1932 27 2670
1472 4.4577706345340955 -1.5914852149861867 4.6339215066297381 121 37 26 0.40679648216746073 12 1991 40 1384 14 1763 23 2860 5 667 33 970
1474 3.7787896924705553 -1.7126722638963845 4.9071710627074188 239 167 152 0.54450938264530946 12 1242 40 1388 46 1847 15 730 13 1423 39 1117 14 1226 20 1554 36 1440 33 791
1475 2.9822844844983547 -1.8221729437478253 5.2411744211450406 166 93 55 0.80655589296280006 11 633 40 1389 14 1631 31 1799 19 1236
1476 3.5598525075801288 -1.8270595007714689 4.9669246940189815 215 134 103 0.74935818764883377 12 1249 40 1392 39 1273 6 1043 25 1583 4 767 45 545 2 1073 1 609 41 414
1477 3.4881592634253109 -1.8543507167845095 5.0094077083043693 202 123 93 0.82762610533853154 12 1250 40 1396 46 1510 13 1436 28 1685 31 1165 14 1627
1478 3.6306827172627973 -1.921493450810577 5.0801354720853986 215 127 100 1.0718757630931017 12 1254 40 1401 6 1224
1479 3.100837209752688 -1.9451238081724174 5.1524125766487696 200 125 103 0.71153417102038052 12 1122 40 1403 46 1837 13 1285 28 1689 14 1608 39 1624 6 1032 31 1155 25 1001 2 1064 3 591
1480 4.392373392567424 -1.8474445527217074 4.5457778639469399 203 119 96 0.84937067735754601 12 1257 40 1408 37 1198
1481 4.3143982375377501 -1.8566855993330147 4.5774499186375648 194 109 88 0.64298596204153113 12 1256 40 1409 13 1053 46 1832 37 1196 31 1991
1482 3.5610600647468345 -1.8264838192388702 4.9686329790673929 215 134 103 0.75081439081059442 12 1116 40 1411 39 1648 6 1144 25 1189 4 839 2 1280 1 790 41 447
1484 4.1846852363013527 -1.9737234748681818 4.6440608944831823 203 120 99 0.81739318625363044 12 1269 40 1420 13 916 39 1605 14 1162 6 1186 31 1445 38 1795 2 1024 4 884 3 811 1 558
1485 4.0949023140972116 -1.9774716107220007 4.6644245465804284 205 123 101 0.45989524301903451 12 1137 40 1421 13 918 39 1223 6 996 25 1143 2 1025 3 576 1 561
1486 3.0975157355066156 -2.0847578183232685 5.1095640625653553 187 111 87 0.54504702110330938 12 1276 40 1423 46 1818 13 927 39 1206 14 1145
1487 3.0278171244370879 -2.0989992695510873 5.1581367794479727 205 139 116 0.22466742945325785 12 1278 40 1424 39 1204 6 989 28 2621
1489 4.5693221764600329 -2.0826596744346775 4.8930999903247736 118 35 29 1.3057806546760589 12 1275 40 1428 31 2835
1490 3.4053414816398742 -2.1161082506666955 4.9517304164709142 211 142 113 0.51864805042447604 12 1289 40 1432 46 1806 13 681 23 1026 5 635 14 1132 6 519 31 1456 25 904 3 551 20 1252 1 562
1492 4.0185165226641386 -2.05937236057673 4.6838081066545278 203 140 106 0.43171641036354069 12 1156 40 1434 46 1474 13 897 39 1968 14 1136 23 1582 5 620 6 978 28 1523 31 1463 38 1031 25 1123 2 998 4 540 3 554 19 1837 20 1246 1 1062 36 851 33 767
1493 3.6349186480279729 -2.101770897950956 4.8495300893856772 205 131 107 0.59269187224934172 12 1291 40 1435 46 1804 13 579 39 803 14 1113 5 628 6 975 28 1227 11 614 31 1472 25 934 45 681 2 1006 4 544 33 765
1495 3.2492391763665789 -2.145951406422872 5.0168231087619652 203 131 104 0.4272466971186582 12 1161 40 1437 46 1183 13 679 39 944 14 1124 5 619 6 972 31 1474 38 1456 25 1119 1 563
1498 3.709691560294611 -2.0971968904231573 4.816168175454421 203 128 101 0.79619169159633463 12 1290 40 1441 46 1801 13 896 39 1963 14 1129 6 977 38 1024 11 615 25 817 45 588 2 1003 4 546 3 552 1 439
1500 2.9431377139870079 -2.1752418907748261 5.1441035965299209 210 149 122 0.56950362870374971 12 1299 40 1443 46 1167 13 904 39 1950 14 1021 5 617 6 966 31 1473 38 1009 25 1117 25 1916 2 1018 4 551 3 545 36 846 20 804
1502 2.415146655498527 0.91396307486021644 6.3645093581692471 29 19 10 0.54608181153336799 12 1380 40 1450 46 1389 15 1674 13 1545 42 1390 28 2721 39 1813 14 2152 23 2743 5 1105 27 2523 43 1188 31 2505 25 2073 45 1367 19 1178 20 1363
1503 2.9328184481984421 0.96930715348577712 6.1976043176670492 79 66 49 0.868847161210481 11 1407 40 1454 28 1825 39 1509 23 1943 25 2153 19 703 36 431
1504 1.0761704093340876 0.60782975358393665 6.8894394457220196 67 57 47 1.5383936329438785 12 1627 40 1460 13 954 13 3096 9 1542 16 1975 27 1521 44 1975 45 2546 17 1669
1505 3.7603391145880765 0.93024342508738278 5.8179896911515012 106 91 60 1.5586454776693579 12 1628 40 1461 46 1985 13 315 42 438 42 1196 16 457 10 337 23 543 31 550 24 309
1506 4.4851780508599921 0.97624898873199983 5.4707122999655518 23 15 3 0.60850082346414847 12 1385 40 1465 46 1374 15 1106 13 962 42 1033 37 1056 9 1232 39 1507 16 1129 14 1371 10 1253 5 1085 8 1004 32 1235 34 1147 20 1224 30 1145 33 513
1509 1.9741337966475252 0.61692829706843688 6.4900896641378285 73 61 49 0.50267056314396141 12 1867 40 1473 46 1645 15 1902 42 1902 39 1774 14 2149 23 1773 25 1374 19 1691
1510 4.4220813406772583 0.84760561541758916 5.4543686978141857 23 14 4 0.6703028119001555 12 843 40 1475 46 515 15 824 13 763 37 551 28 1371 9 722 39 621 16 671 14 888 10 837 23 1265 5 469 26 1304 8 621 27 1245 31 909 24 554 32 1025 34 864 38 651 25 468 22 482 29 1438 19 643 30 644 35 411 36 264 33 199
1513 2.9104112494734253 0.47267189134560023 5.998329534795908 91 76 57 0.57535606795450323 12 1610 40 1486 46 2245
1514 4.5193191975204243 -0.99213520459182702 4.7634122877326979 62 49 28 0.6584600758745015 12 1031 40 1492 46 1245 15 855 13 1222 37 1441 28 2184 9 1237 39 1378 14 1267 23 2086 5 1507 26 1787 27 1782 6 763 31 1654 25 1663 2 1320 3 751 19 1911 20 1772 36 1338 1 826 33 1003
1516 1.6015872094788601 -3.6082673604175128 5.027246962665032 63 59 44 1.0319992525228128 12 640 40 1500 46 1004 15 978 27 1602
1518 4.7831404089613487 0.54228710967554006 5.5475021429742348 69 37 0 1.6623764521673992 12 1406 40 1503 28 3049 46 2333 9 1406 14 2903 46 2332 26 2065 24 2269
1519 2.1379889022188037 0.1937755702323434 6.2799421153341894 39 26 17 0.72849428393062354 12 1413 40 1505 46 1345 15 1136 13 972 28 2404 39 1467 16 934 9 1049 14 919 7 1434 44 785 27 1383 43 751 38 1202 45 889 19 843 29 985 32 820
1521 2.0393668886465832 0.065239535548807973 6.3006054466446102 92 80 68 0.81412845374025522 11 1467 40 1511 46 1337 15 1144 13 3760 40 3473 42 976 42 2347 28 1972 9 1499 39 1459 16 2032 14 730 23 1887 18 1962 38 1196 19 1564
1522 1.965010807676878 0.059949404206193109 6.3345435611153169 88 76 64 0.71596601640824165 12 1421 40 1512 13 974 42 977 28 2399 39 1173 16 1065 37 1595 10 989 23 2525 26 2048 8 963 27 1367 31 1336 18 1964 38 1194 29 1607 19 1269 30 897
1523 3.1361732307453938 0.12626132104775267 5.8031183851878332 37 23 1 0.13842790710081915 11 1432 40 1514 39 1462
1524 1.0887688130901543 -0.12699130368481221 6.6632367754684045 80 72 61 0.40768318003703641 12 1788 40 1515 13 1807
1525 2.0444699297597109 -0.020863619681383814 6.289911936821234 94 77 66 0.54701129843683938 11 2642 40 1517 46 2214 15 3148 13 2187 42 1141 37 1589 28 3017 9 1494 39 3229 16 1062 10 1256 23 2522 44 1617 8 960 18 1958 32 2684 25 1340 45 2132 29 1576 19 1167 30 1899
1526 1.9716949052186046 -0.030389147284897815 6.318440424996667 82 70 57 0.73275888200588102 12 2088 40 1518 46 2213 15 2885 13 2099 42 761 9 1493 39 2453 14 1341 37 1586 23 1879 26 2586 44 1872 8 1246 43 2832 32 1168 25 1339 45 1299 45 2128 29 2457 19 1436 30 2328
1527 2.8410909413574768 -0.010231477931713424 5.9582712783739087 99 81 66 0.82730494423178946 12 2085 40 1522 37 1591 16 1058 9 905 27 1218 7 1442 43 1129 18 1015 45 891 22 866
1528 2.2476020290126373 -3.9131458282118001 4.7231108147917649 168 74 60 2.0979484304531364 12 1225 15 666 28 1086 26 1027
1529 2.0461593432181755 -0.1836420702205854 6.2447664267398268 96 78 70 0.61630634496924042 12 2075 40 1529 46 2000 42 991 37 1577 9 1481 39 2436 16 1381 14 2300 10 972 26 2581 44 1601 8 951 27 1346 32 1155 18 1759 25 1327
1531 4.6475183657991215 0.046632514699427037 5.6307306446449719 23 20 15 0.66965280423688744 12 1442 40 1537 46 1319 15 940 13 1452 42 1133 37 1604 28 2390 9 1170 39 1447 16 1064 10 1687 23 1862 5 1051 26 1275 8 956 32 1179 34 1500 38 1186 19 1410 20 1166 1 687
1533 2.1365886775177914 -0.29217090888770769 6.1585100879172261 43 31 22 0.74015316528101871 12 1448 40 1541 15 1157 13 1000 37 925 28 2217 39 1430 5 909 14 738 7 1019 26 1811 44 703 27 1213 43 1113 31 1111 18 738 45 905
1536 1.212485027494792 0.90877241320927593 6.9684359324141427 40 30 21 1.3274043035613432 12 1462 40 1551 13 2564 28 2264 42 710 44 999 7 1122
1537 2.4121179985320143 0.91197831745477065 6.3571177663437108 29 19 10 0.60956797042825195 12 1463 40 1554 46 1655 15 1913 13 1832 42 1238 28 3106 39 1526 16 2983 14 2488 10 1268 23 2575 5 1301 44 1229 43 1416 31 2448 24 1258 21 1096 38 1233 25 2156 45 1543 22 1416 29 677 19 1186 20 1003 30 1676 23 1476
1538 1.2054579330278261 0.7364295096001845 6.8778080463656739 44 34 23 0.12148499329864844 12 1820 40 1555
1539 2.9232494477273683 0.80391868920978138 6.1405864891410946 85 68 52 1.0920585195300259 11 1409 40 1558 46 2260 15 1113 13 1824 42 1039 37 781 9 1333 39 1156 16 1127 23 2084 14 1378 5 1096 7 1386 8 1001 27 1437 31 2429 32 1555 18 1998 25 666 17 807 22 824 19 976 30 1762 35 564
1540 2.1388336688692311 0.67617937374171655 6.4285946676748047 38 23 16 0.69401832112149786 12 1468 40 1561 46 923 15 1170 13 1823 37 1215 28 1807 9 1403 39 903 16 1124 14 1385 7 969 27 1419 43 769 31 1891 32 1225 34 1135 38 1437 25 1709 45 868 17 696
1541 4.5673449641676838 0.93254798775325232 5.4175475004865996 87 47 39 0.63549877728903748 12 1817 40 1563 37 1398 16 1794 5 1289 24 1243 34 1376 22 1791 30 1857 35 989
1542 1.9730542875044663 0.61666421772566093 6.4920327783842202 73 61 49 0.51440191690709469 12 1697 40 1564 46 1369 15 1643 42 1572 37 1880 28 1799 9 1543 39 1491 16 1508 14 2483 23 2044 7 1852 44 2018 8 1464 32 1220 34 1659 25 1704 45 2203 38 1221 17 811 19 1533 29 1822 30 1578
1543 2.8481248729821127 0.31295731567829671 6.0327983614019658 90 74 61 0.26407930075264718 12 1483 40 1573 23 1765 27 1828
1545 1.090147646258627 0.033774662140182897 6.7447530983420476 79 71 60 0.49167622428104646 12 1793 40 1576 28 3025
1546 2.9280351524878383 0.23252544270877873 5.987308223922863 96 79 66 0.47380631733215395 12 1488 40 1577 46 1627 42 744 28 2230 39 1762 5 918 25 1693 19 692 20 720
1547 2.9242914534389892 0.23570684144852819 5.9748211491214311 96 79 66 0.60557309389410319 12 1489 40 1578 46 1625 15 1891 13 1489 28 2229 14 3318 23 2557 5 1786 25 1694
1548 2.9152109249867917 0.22828307750354909 5.9573350676771764 96 79 66 0.29773858514054052 12 1490 40 1579 46 1626 28 2231 25 1692
1549 1.0918738073003473 -0.12757291525663575 6.6907212641469789 80 72 61 0.47408272650983269 11 2001 12 2086 40 1581 13 2101 44 679
1550 2.0399724202885947 -0.020297962574994537 6.2838525382674737 94 77 66 0.40027451321189389 11 2520 40 1582 46 2303 15 3394 13 2533 39 3063 25 1685
1551 2.2247087805197765 -0.60464666984212767 6.0331987792843682 46 32 19 0.9911657229887797 12 2048 40 1587 15 1573 37 1342 39 1410 16 1026 42 1058 5 1283 7 1058 26 2551 44 850 6 801 43 1104 32 1456 34 1341 45 914 19 1183
1554 1.7204650091816891 -0.14350512612659078 6.4201925067462575 120 108 94 1.3483154388417804 12 2145 40 1592 46 3251 40 2658 13 2096 42 613 28 1566 16 997 14 2480 31 2863
1555 2.6304207923514542 -1.7561650485206333 5.7025917170151637 79 38 2 1.7249463716759119 12 3215 40 1593 3 620 41 1450
1556 0.89090536320760261 -3.5017600672970715 5.3520588374155356 146 140 126 1.0477241485903117 12 973 40 1598 46 2954 9 2389 39 2522 23 1511 25 1989 4 933 2 1189 41 1685
1558 2.9227714911466181 -0.32619044788377899 5.8146151626637268 99 83 68 0.32453452106156427 12 1783 40 1603 46 2806 13 2402 39 1425 38 1872 25 2035 29 2308
1562 5.0299203152712177 -3.1842357856730668 4.633958920233411 121 107 82 0.70129897082146586 12 1931 40 1614 46 2037 15 1365 28 446 23 1392 6 1231 5 1567 31 2795 38 939 4 928 2 936 3 1174 19 1796 36 1401 1 506 33 1063
1563 4.6649656906573993 -3.449617904300363 4.7663754234863882 149 127 100 0.57007755505607272 12 1902 40 1616 46 2064 15 1382 28 1839 9 1376 39 1878 23 2862 5 1360 26 1682 6 1300 31 1565 38 1608 4 1074 3 1196 19 1021 1 492 33 623
1564 4.4187453763592588 -0.93821158245097092 4.7796287213251709 85 70 49 0.98243037737434824 12 2314 40 1619 46 2524 13 1991 37 3014 39 1386 15 3243 25 2498
1565 3.2404090375977939 -1.0593041504378318 5.3353793166183969 203 145 104 0.73379819029818827 12 2538 40 1621 46 2200 15 2911 13 1771 28 2667 39 2380 5 1910 6 1490 38 2785 25 2304 4 1286 2 1386 3 1266 20 1134 20 1775 36 1491 1 1477 33 659
1566 4.0536656874043251 -0.91507880493043137 5.0217890196072767 56 43 34 1.1646870656873927 12 525 40 1623 13 719 11 167 28 1041 39 359 27 345
1567 2.4849134860420286 -0.85724142011291316 5.9329275781466562 81 68 51 1.0392456267839498 12 3044 40 1628 23 1037
1568 2.7056912841716194 -0.58071592514256964 5.828897075877074 97 81 68 1.1595825988912758 12 2137 40 1638 14 2819 23 2469 43 2121 32 3087 29 2661 35 961
1570 1.7051959443802753 -0.65656437621861097 6.0957996595694599 44 34 25 1.2820245650821791 12 2047 40 1641 46 1939 13 2061 28 2969 6 1510
1571 3.9085131801505955 -0.35871156290511186 6.0193163797058622 55 47 36 0.76954307884006712 11 1987 12 3013 40 1643 15 1590 39 2411
1573 2.923802566227355 -0.24638213968785955 5.8383032572660802 95 79 64 0.44946759444020745 11 1111 40 1652 46 3200 13 1715 28 2214 15 2876 38 2841 25 2329
1574 1.2584674472184949 -0.35211527264803066 6.5168854693647287 66 55 45 1.0736120555938198 12 2067 40 1661 13 2084 46 2055 28 1871 9 2900 39 2427 16 1421 44 1582 18 1638 45 1270
1580 2.5909789306180491 -0.038961418473384253 6.0320495867874673 42 29 19 0.8003772667834661 12 2203 40 1675 46 3254 42 2125 28 3013 15 2890 39 2447 16 2666 10 2238 5 1964 7 2534 31 2194 45 1310 22 1677 19 1427 20 1984 35 1588 36 777
1581 1.0805593581227393 -0.20707774794275971 6.6394261676344373 86 77 64 0.19423522998307413 40 1676 9 3767
1584 1.5977216979467099 -0.032235647304463648 6.4708504369971376 44 35 24 0.26813673072574945 12 2552 40 1682 46 2216
1585 3.1036863970648008 0.14076654416017081 5.8431195828710374 124 105 74 0.57325662645722986 11 2025 40 1683 15 1621 42 1144 37 1826 28 3023 9 1506 16 1461 10 2253 5 1063 44 1915 43 1459 34 1600 45 2076 22 1351 29 2480 19 1428 20 1189 30 1894 35 775 33 564
1586 2.8927801276133365 0.14725716944830711 5.8726433835174428 97 83 75 0.24340654893733271 12 1492 40 1685 46 2218
1588 4.2580139848313063 0.4439473146769507 5.8256309509427959 60 49 39 1.547321927137705 11 2047 40 1691 9 2482 15 1899
1589 4.365714185897299 0.44043076740849191 5.9629786302098333 66 54 42 0.88625116248077995 12 3270 46 2822 13 3321
1590 4.7672663524547527 0.51320249725963307 5.7046089523487629 66 54 37 0.77463736743511791 12 2101 40 1695 46 2222 15 1121 13 2537 39 1474 38 854
1591 3.1012794709896188 0.28982769307604306 5.878883859308039 122 106 84 0.45974589586188114 12 2095 40 1697 46 2331 15 2933 13 3211 42 743 37 1842 39 2475 16 1473 14 2131 10 1705 5 2071 7 1834 44 1644 8 1257 27 2031 43 1715 32 1558 34 1617 18 1966 25 2226 45 1961 22 1120 29 1674 20 1994 30 1593 36 1060
1592 4.0693567345936987 0.46542540349577433 5.8149357678906002 55 30 7 1.0536515858086493 11 1419 40 1698 46 2522 28 2410 23 2531
1593 2.9286456934405076 0.31722021063262035 5.9920098704269185 94 78 66 0.34153785366473094 12 1481 40 1699 46 2230 39 1522 38 2099 25 2216
1595 2.209876003294474 0.24932495972110219 6.2536540451797693 50 38 25 0.93232155366003733 12 2870 40 1701 46 2350 5 1670 42 1509 43 2452 24 2239 38 2404 25 2221 45 1327 19 952
1596 4.7251983693748842 0.57383206520595731 5.5524700354705914 135 91 47 0.50584404716012765 12 2863 40 1703 46 2344 13 2209 42 1894 9 2519 39 2044 24 2105 38 1682 30 2513 1 1086
1597 1.9810388413726245 0.29910667106457473 6.4260131729481005 80 67 58 0.35137414610175483 12 2625 40 1704 13 2226 39 2342 25 2213
1598 3.7550621016946581 0.61751258407180076 6.4351868599606199 108 91 71 0.56419248208976702 12 1606 40 1708
1601 2.3388403667340514 0.42105389328438542 6.256258388379786 34 24 14 1.312822431534308 12 2648 40 1715 15 2943 13 2236 42 1538 39 2867 10 1620 13 364 5 1735 44 1648 43 2417 12 2845 24 1833 32 2870 38 1680 45 1339 30 2687
1605 3.7175906925175499 0.68074761342742007 5.7201222100965285 107 90 68 0.64291044968976918 12 1616 40 1725 46 2677 13 3148 42 1897 37 1885 9 1940 16 2208 10 1967 23 2550 5 2280 7 2694 44 1227 8 1651 32 2700 25 1372 45 1375 19 1552
1606 1.5698734807415671 0.43780706021881388 6.5083909194562519 39 26 13 0.16228359586611069 12 2571 40 1729
1609 2.1372872772088769 0.64083488178874082 6.4194593141983436 83 66 50 0.83161108996763977 11 2054 40 1740 46 2644 42 1194 37 3555 16 2942 14 3153 10 2319 27 2053 24 778 34 1663 17 806 29 2505 30 2712
1610 3.3796723704231146 0.79472732968408288 5.8868274825438123 151 134 111 0.67730940250626759 11 2086 40 1745 46 2383 15 1672 13 2274 28 3192 39 2530 7 1869 43 1464 38 2227 25 1384 45 1374
1611 3.1009107568940131 0.77484010415943072 6.016316318096532 112 91 66 0.43338363520590839 12 2691 40 1747 46 2643 37 2222 42 1393 9 3389 16 1982 10 2576 5 1295 8 2086 24 1075 32 2912 34 1779 17 797 22 2552
1614 3.4204094949430028 0.93547212787501199 5.9137551177984955 32 23 6 0.39691221923032294 12 2704 40 1758 46 2400 15 2544 13 2285 37 1918 28 3098 9 2593 39 2551 16 1532 14 2987 10 1262 23 2569 5 1332 7 1885 44 1248 8 1290 27 2228 43 1790 24 1248 32 1618 34 1686 18 2000 25 2158 17 805 22 1404 20 2033 30 1710 35 1842 36 1066 33 596
1616 1.0911071437113815 0.84150503599174287 6.9378631447018089 62 53 44 0.64901183088437631 12 1378 40 1772 28 1826 7 2697 44 1215 43 1463 34 2254 21 1110 10 1979
1619 1.2406000925029614 0.87589957663758211 6.7601138293934291 37 27 17 0.27889046676904372 12 2588 40 1776
1620 2.4138751098017344 1.067451497497202 6.3656189151963583 33 24 13 0.20167539895987344 12 2726 40 1777 46 2418
1622 1.9809812784747254 -0.51237286801380411 6.196356221441162 91 74 59 0.38082049234786175 12 2391 40 1784 46 2204 38 1869
1624 0.97640487711228818 -3.6219794853505545 5.3023854296470008 150 146 134 1.11887153290507 12 1704 40 1794 46 2098 39 1536 5 1025 23 1507 4 937
1625 1.3440605241025561 -3.6961057555383587 5.6351620360572001 168 155 138 1.6076663678187693 12 1887 40 1799 23 1510 5 486
1626 3.3950300949373702 -3.6725455646314296 5.3446525095219215 155 135 105 0.50135812613968023 12 1712 40 1802 46 2047 28 2817 15 1997 39 2457 23 2269 7 1272 26 2310 6 1294 31 2779 25 1966 4 1512 45 840 3 1201 36 1373 41 611
1627 5.0484881785887525 -3.4120825683743554 4.6021532773174201 132 122 102 0.5465067016105617 12 1689 40 1804 15 1722 28 2594 39 2958 5 1645 38 1734 4 1316 2 1182 3 1656 1 902 33 944
1628 4.5754133615050003 -3.4667529651400222 4.8144398887141753 130 110 78 0.41301830743848078 12 1714 40 1805 46 1927 28 2593 5 1591 38 2261 25 1888 4 1315 19 1779 36 1387 1 1206
1629 4.9017191071130162 -3.4228311604079291 4.6655502804461833 137 126 104 0.65832025834288221 12 1716 40 1806 46 1446 15 1546 9 1378 39 2018 23 1523 6 1537 25 1479 3 1311
1630 4.9823665726014408 -3.334927828542452 4.6445353430425813 131 121 99 0.82073434301963311 12 1718 40 1815 46 2973 15 1311 28 1776 39 1542 5 1165 27 1500 6 1239 38 931 25 1063 4 1078 2 1185 3 1186 1 498
1631 4.4026654623838484 -3.3230884215208265 4.8765290700822348 151 134 106 0.44273213332361516 12 1720 40 1817 46 2139 39 1999 23 2808 5 1375 38 1582 4 1542 2 1187 3 1314 19 1038 1 1273
1633 4.906793946915613 -3.0646609526847617 4.6766145211001673 106 87 54 0.47955422903618983 12 2161 40 1823 4 1337 2 2544
1634 4.7544838942947152 -3.0586653243206996 4.7461738474091861 119 104 78 0.50727098433869533 12 1199 40 1824 46 2146 15 921 5 1383 6 945 4 923 2 1195 3 1168 1 930
1635 4.2925861376330161 -3.0316090943420235 4.9267733705890988 170 150 119 0.44156911130595899 12 1725 40 1825 46 2017 28 2606 39 1987 14 1902 23 2989 5 1711 6 1518 38 1743 4 1574 2 1764 3 1320 1 1307
1636 4.1478878537338213 -3.0460757781048753 4.9939084911735385 175 155 122 0.52670509191726567 12 1947 40 1826 46 2014 15 2063 9 2035 7 1474 26 2355 6 1346 38 1742 3 446 33 949
1637 4.6210785557332885 -2.9884311279395352 4.7837903665072643 164 149 121 0.39513786559872155 12 1726 40 1827 15 1304 14 1554 23 2821 5 1172 31 2246 38 954 25 2444 4 918 2 954 3 1321 20 1283 36 1292 1 895 33 951
1638 4.7125064968812405 -2.7760822773732494 4.7430304543458419 175 151 113 0.54310054377949457 12 1963 40 1830 39 2608 15 1338 26 1878 6 1359 38 1513 15 1746 25 1737 2 1513 3 1148 1 876
1639 1.2618024143737387 -2.7875146389990513 5.4629577597954624 100 87 70 0.68785916631672239 12 1190 40 1832
1640 2.6688030400175409 -2.1593746984889002 5.2570666057234199 153 64 48 0.1401726883386758 12 1155 40 1836
1641 4.0740366372479873 -2.1910874425479867 5.2880788345351721 152 55 39 1.7343085951958785 12 1739 40 1837 28 2878 15 877 26 1075 27 1894
1642 4.6817669659794605 -1.7881761938277736 4.450272376943639 40 31 19 0.79798006382785447 12 1745 40 1842 46 1506 13 1947 37 1556 9 1278 28 2103 23 2845
1643 4.0187576895327561 -1.8576609985442878 4.748079252813473 216 142 127 0.98018472048079508 12 1744 40 1843 46 2161 13 1733 37 1564 7 785
1644 2.9140808420721442 -1.880297366983499 5.1905871153615815 223 158 135 0.27722353949205225 12 1747 40 1844 46 2166
1645 2.4782066107418568 -1.7832410292925602 5.4655538293206378 243 187 169 0.92893453605364584 12 1750 40 1848 13 1740 39 2265 14 1229 23 2859 5 1143 31 1188 25 2382 28 2115 2 1688
1646 1.9115362927690223 -1.7310101943830882 5.9416265959081977 207 135 116 0.89384358795665764 12 1101 40 1851 28 2129 4 804 3 771
1647 4.5502686833080475 -1.25469437334497 4.6582919572688972 154 132 83 0.38913137782679247 12 1755 40 1859 46 2180 28 2912 39 2283 27 2832 3 1021 1 1026
1648 2.9821972567584116 -1.4100074278718946 5.3549825552091646 91 49 18 0.68865954841181931 12 2517 40 1860 15 1822 43 935
1650 2.0973417918814588 -1.2582759489913142 5.7681021997265516 203 136 105 0.4038500269880016 12 1767 40 1872 15 2796 28 1873 39 1354 23 2429 5 1147 26 2007 27 2778 6 771 38 1399 43 1591 25 1265 45 1220 2 1329 3 680 1 1039 41 561
1651 4.1205304022001465 -1.0257761734894806 4.9422243801432693 53 31 13 0.74345532944071624 12 1776 40 1873 15 1864 6 1621 39 3047 4 1422 2 1882 3 1576 1 1634
1653 3.8906796340111245 -1.0492716348629716 5.0489486944407309 51 31 16 0.53300875793859293 12 1772 40 1876 5 1765 6 1620 38 2370 4 1425 2 1716 3 1738 1 1636
1654 4.4414159636724184 -0.94054809509621973 4.8136617548708056 85 70 49 0.36011356728647359 12 2539 40 1879 46 2942 39 1728 25 2473
1656 1.9795521163279362 -0.34972629311145648 6.2432675768673978 85 71 62 0.52057654732004932 12 2546 40 1883 46 1607 15 3387 13 2525 38 2379
1657 2.9243304274708639 -0.24553173462631331 5.8486939648319822 95 79 64 0.69552629225708962 11 943 40 1884 46 2809 15 2725 13 1911 37 1800 28 2374 16 1043 5 2554 44 1599 8 1236 43 2155 32 1152 18 2031 25 1946 45 2358 29 2437 22 875 20 858 35 538 36 662 36 1129
1658 2.9255293531645323 0.074005012383796295 5.9273156216648388 87 71 54 0.34549665635392046 12 1790 40 1891 46 2212 13 1804
1659 2.9350851652411816 0.074954333593794581 5.9528967023105883 87 71 54 0.35839246747760828 12 1791 40 1893 13 1803 35 618
1660 1.5977216979467099 -0.032235647304463648 6.4708504369971376 44 35 24 0.26813673072574945 12 2223 40 1896 46 2314
1663 4.7732694664865853 0.51359198498756753 5.7124170439733977 66 54 37 0.6381895856887787 12 2621 40 1902 46 2327 15 1172 13 2201 38 859 36 776
1664 3.100360608091222 0.28866257112878058 5.8805874921485151 122 106 84 0.38700508251274401 12 1795 40 1905 46 2224 15 2746 42 978 37 2202 16 1778 14 1808 10 1530 7 1686 44 1482 8 1470 18 1866 22 1003 29 1737 20 1782 30 1934 35 1010 36 916
1665 3.7550621016946581 0.61751258407180076 6.4351868599606199 108 91 71 0.56419248208976702 12 1802 40 1909
1666 3.7100782434125645 0.5205591104354812 5.6754085996940224 107 91 63 0.68721814457680563 11 1723 12 2849 40 1910 46 2240 13 2387 42 1159 16 1783 10 2534 5 1664 43 1415 24 1067 22 1771 29 2318 30 3056
1667 3.7122147203008753 0.52329626724604406 5.6760895535377056 107 91 63 1.1218244060641138 12 3281 40 1911 46 2241 13 2373 10 2878 5 1789 43 1414 45 1544 22 1426 30 3073 35 1071 33 756
1669 2.9302866287955998 0.72496146237333381 6.1170538656834728 85 68 54 0.46843020777997901 11 2533 40 1928 46 2254 15 2755 42 1568 37 1890 9 2542 16 1512 10 1738 8 1659 24 1236 32 1657 34 2405 18 2572 45 2244 17 1493 29 2515 30 1572 35 1851 36 686
1670 3.3796101364171598 0.7950173137534926 5.8875386213193242 151 134 111 0.70409571499902346 11 1732 40 1929 46 2256 15 1911 13 2554 28 3196 39 2352 7 1694 43 1292 38 2435 45 1546
1671 3.1014259203119563 0.77410443140622776 6.0186138530663769 112 91 66 0.45045687924044064 12 2580 40 1931 46 2841 37 1894 42 1193 9 3390 16 2213 5 1094 8 2136 24 1240 34 1803 35 1090
1672 3.1028868274799226 0.7749234010476298 6.0169929802598325 112 91 66 0.31813034731862622 12 2581 40 1932 46 2840 9 3197 35 1405
1673 1.314386643003403 0.82018058342624933 6.8383158482026429 48 38 28 1.5031448682373072 12 2586 40 1938 42 1465 39 3086
1675 4.2728955576406031 -4.0867334117130012 4.7779603705868317 47 36 19 0.004015896788440514 12 3339 40 1944
1677 2.7721933098845257 -0.36184695591043892 5.8581024194324378 120 104 91 0.4267758177406823 12 2403 40 1951 46 3189 13 2780 11 2612 42 2090 37 2645 28 2990 15 2862 9 2897 16 2621 14 2847 10 2206 5 2128 7 1794 8 1759 43 2141 38 2826 45 2116 1 1496
1678 4.024574894031133 0.93498524563267515 6.5888037670966595 136 116 90 1.8222902913661023 12 2815 40 1953 5 1636
1679 4.4265983438445993 1.018547932947037 5.5107324650201903 30 17 6 0.41498488684420576 12 2701 40 1956 15 2414 13 3119 42 2526 37 3621 9 2603 39 2554 14 2970 5 1827 8 2097 27 2221 24 2344 32 2931
1681 2.0685086230851057 -4.2157041144159422 5.2198378420259832 67 53 42 0.92867481846946631 12 2429 40 1971 5 1615
1682 3.0874031253097001 -4.1126530128120597 4.803798378332865 36 24 12 0.27950331094315117 12 1580 40 1973 5 1347
1683 2.2442429931569294 -3.8047852499239343 4.6216746045594794 101 89 66 1.667248995458634 12 3303 40 1975 15 1973 27 528
1684 2.5018746488509791 -3.7803126088856875 4.5394522158603952 90 81 56 1.6956394994997339 12 636 40 1976 15 1410 26 2286 27 530
1685 3.7713252599104767 -4.2801688244911791 5.1638954576144602 91 77 54 1.1829926452840003 12 2440 40 1982 6 2731
1686 0.97460363216800239 -3.6230797621925372 5.3010941139081265 150 146 134 0.98939951184636044 12 1883 40 1987 46 2088 39 1859 23 1425 38 1625 4 1070
1687 1.3313975368065287 -3.7296647337067266 5.3972982001763405 149 138 123 1.5400633679290319 12 3171 40 1988 46 1008 23 1101 5 490 31 957
1688 3.4834748972601131 -3.6717662331290595 4.7492136771321114 86 73 54 0.19059881941463044 12 971 40 1989 46 2948 45 560
1689 0.97055255337823887 -3.5470954854540673 5.2584198452062818 158 154 143 1.1040839201129635 12 1886 40 1991 15 3530
1690 1.3440605241025561 -3.6961057555383587 5.6351620360572001 168 155 138 1.6076663678187693 12 1707 40 1993 23 1416 5 539
1691 4.4444559610718155 -3.6332185133592287 4.8704857199791274 128 115 88 0.49873344639143002 12 1892 40 1994 46 1741 15 1989 9 1390 39 2433 23 2265 5 1017 27 2549 6 1291 31 2775 25 2029 4 1212 19 1023 33 857
1692 4.5941764516848549 -3.6215057521660672 4.8118984776670564 129 118 89 0.46012856898960564 12 1893 40 1995 46 2077 15 1988 28 2814 9 1960 39 2432 23 2268 5 1354 26 2302 27 2551 6 1735 31 2776 4 1504 33 632
1693 3.6202946695288416 -3.6875054503884912 5.2459682265448802 44 31 4 0.44628588096726685 12 1576 40 1998 15 1713 9 1702 23 2802 5 1353 7 1276 31 2233 4 1310 3 1310
1694 3.3948074033358355 -3.6749005488730333 5.3446565162285786 155 135 105 0.46610064902144366 12 1896 40 2000 46 2076 9 1972 7 1093 31 2235 45 800 2 1531 36 1274
1695 4.1644067069037831 -3.5488923524216367 5.004116258033017 45 31 18 1.5569904691251668 12 1567 40 2003 46 2071 15 987 28 1973 28 2818 9 887 39 1005 5 1596 7 580 7 1277 26 1029 27 1130 31 2236 4 1513 2 915 38 918 3 937 19 1345 1 1203 33 937
1696 3.8068980426216932 -3.5754136940703622 5.1723144546076734 137 117 82 1.1167847678900813 12 1897 40 2004 46 2074 15 2004 28 3226 39 2219 7 1091 7 1092 6 1296 4 1516 1 1260 19 758
1697 5.0660350210896574 -3.417885988252197 4.6203114091754838 132 122 102 1.1154276578173703 12 1841 40 2005 46 2060 15 2007 28 2821 39 3281 23 1406 5 1590 6 1639 31 1560 38 1600 4 1438 2 921 3 1841 36 192 1 875 33 108 33 1055
1698 4.4242437419937426 -3.4810063361384644 4.8772631076416131 136 116 86 0.51884647002199458 12 2120 40 2006 46 1749 15 1721 28 1854 9 1373 39 2121 23 2273 5 1357 26 1651 6 1637 38 1613 4 1519 2 918 3 1835 1 1205
1699 4.5737968728849641 -3.4651870305641026 4.8142259800627825 130 110 78 0.53698574993326675 12 1901 40 2007 46 2065 28 2820 9 1971 5 1652 26 2314 27 2565 6 1299 39 2120 38 2575 25 1919 4 1520 2 1343 3 1837 19 1578 36 1276 1 914
1701 4.9016418557319108 -3.4236899759310599 4.6640394148538729 137 126 104 0.64614445015589705 12 1904 40 2009 46 1750 15 1569 9 1342 39 2573 23 1407 5 1362 6 1302 38 1601 25 1058 4 1075 2 920 3 1194 19 1031 1 807 33 622
1702 3.3661206188415109 -3.5843000487041801 5.3185326803927451 168 149 120 0.45361470236296025 12 2115 40 2010 46 2009
1703 4.2639479784046319 -3.5084263478116609 4.9710357679323822 125 110 79 0.9146682620695723 12 1900 40 2011 46 2067 9 1976 7 886 6 1297 31 2783 4 1523 2 917
1704 4.6612884119346782 -3.3881120393136253 4.7894484806647313 115 79 59 0.68997194795241934 12 1912 40 2018 46 2053 15 1377 28 1778 39 1883 23 2276 5 1586 26 1536 9 1980 27 1476 6 864 31 2786 38 1591 4 1528 2 1183 3 1187 19 1787 1 721 33 1054
1706 4.3397879796785865 -3.4204404737622123 4.9410196480988873 91 80 63 0.59143920579317022 12 1911 40 2020 28 1782 9 1985 5 1587 6 1310 38 1594
1708 4.9792449113691069 -3.3323186920414831 4.6439830582304502 131 121 99 0.79106124986220216 12 1914 40 2022 15 1376 28 2057 39 1884 5 1371 27 2300 6 1229 38 1269 25 1482 4 931 2 926
1710 4.6354303064071969 -3.2911829417314085 4.7481494196534095 139 122 96 0.84383491637804142 12 1843 40 2024 46 2978 15 2031 39 2201 5 1377 6 1812 9 1363 38 2266 4 1543 2 1163 3 1852 1 923 33 1056 5 2340
1711 4.6980887951232511 -3.2811027016843708 4.7162922009427444 115 96 66 0.3986402975959738 12 1922 40 2025 38 1577 3 1180 15 2032
1712 4.7825519364427498 -3.2726582621488363 4.6783535617608898 136 119 93 0.48269763976028057 12 1923 40 2026 46 2979 28 2832 23 2286 5 1580 6 1984 9 1338 38 2592 4 1540 2 1781 3 1853 1 1272
1713 1.3171132177370286 -3.3003725358075044 5.4822936785153935 158 143 123 1.3925594794407938 12 1906 40 2027 46 1757 23 1125 25 2458 28 2834
1714 4.5604840859608267 -3.3103225430275542 4.8180542541451956 150 137 105 0.49930913916771025 12 1921 40 2028 46 2043 28 2831 15 2030 39 2373 23 2952 5 1376 26 2328 9 1990 6 1317 38 1579 4 1539 2 933 3 1851 19 1791 1 1217
1715 4.4087299996091689 -3.3239930232831045 4.881196196533363 151 134 106 0.5041087965060238 12 1919 40 2029 46 2044 15 1371 39 2290 23 2284 5 1167 26 2330 9 1993 27 1331 6 1315 31 2790 38 1735 4 1322 2 932 3 1183 19 1182 1 1541
1717 4.7888706668330006 -3.2059846811992285 4.7215285315068751 102 79 45 0.85861787246988885 12 1927 40 2033 46 2985 15 2036 9 2000 39 2500 23 1531 27 2585 6 1319 31 2794 38 1572 4 1548 2 1749 3 2220 1 1282
1718 4.6394518592640646 -3.2202740928206959 4.7760223052051352 94 71 43 0.95560265028968105 12 1925 40 2034 46 2038 15 2035 28 2835 9 1999 39 2478 23 2288 6 1322 38 1573 25 2454 4 1549 2 1431 3 1935 1 840
1719 4.8718471710826039 -3.1829084945476618 4.6825487534510719 122 108 81 1.2718189602770549 12 1929 40 2035 15 2038 9 2003 39 2553 23 2289 6 1643 38 1570 25 857 27 551 2 937 3 1866 1 1283
1720 4.1360275434421467 -3.2177978663368032 5.0100735415751592 38 27 12 1.0325694442579489 12 1721 40 2037 46 2141 23 2809 5 1566 6 1543 31 2241 25 2452 4 1327 2 942 19 1034 36 837
1721 4.7826659475629283 -3.1297257571746351 4.7092864919648312 160 147 115 0.66724326622003627 12 1938 40 2038 46 2024 15 2045 28 2840 39 2212 5 1558 27 2588 9 2009 6 1644 31 998 38 2604 25 2450 4 1556 2 1447 3 1872 1 1288
1722 4.6346788902180789 -3.1453256305912363 4.7770839004710153 160 146 112 0.47274783497770723 12 1937 40 2039 46 2988 15 2043 28 2839 9 2010 39 2572 23 2293 5 1560 6 1333 31 2797 38 1558 4 1555 2 1446 3 1871 20 1266 36 1402 1 926 33 1061
1723 4.9448002381032703 -3.0641252250158075 4.6527605771683591 106 86 54 0.53523749838677048 12 1844 40 2042 15 2051 39 3307 6 1645 5 1553 4 1561 2 1460 3 1665 1 1296
1724 4.4255097741394751 -3.116077432645652 4.8833357712176992 114 94 62 0.58483085630266518 12 1942 40 2043 9 2016 4 1564 2 1461 3 1664 20 2081 1 1580
1725 4.9091077231878906 -3.0645289473250892 4.6770045674486136 106 87 54 1.0922551827609783 12 2484 40 2044 15 2054 9 2013 27 1711 4 1565 2 2173 3 1883 33 1071
1726 4.9795472374177079 -3.0556787927039468 4.6282207657041301 111 91 59 1.3590555343642274 12 1845 40 2045 15 2055 5 1551 6 1988 40 2175 2 1376 3 1884 1 1299
1727 4.7518074323302502 -3.0573793815169683 4.7441005167226633 119 104 78 0.56013591106470295 12 1338 40 2047 46 2016 15 932 39 1894 5 1171 6 875 4 1086 2 945 3 1319 1 1070
1729 4.3993580600037365 -3.0906439187548842 4.9113566154447916 165 148 122 0.47285113933638412 12 1945 40 2050 46 2018 15 1355 9 2026 39 1794 23 1448 5 1550 14 1970 26 1655 27 2595 6 1341 38 1553 25 2446 2 947 3 1169 1 898
1730 4.8724522713543461 -3.0352243604263074 4.6984958246283668 164 147 119 0.53232249663396425 12 1946 40 2051 15 1565 28 1763 9 2019 39 1896 6 1343 5 1549 38 1549 25 1078 4 1087 2 948 3 1166 1 901
1731 4.295481805411586 -3.0322171540666023 4.9292881961021786 170 150 119 0.44276653532226301 12 1948 40 2056 46 2021 28 2849 15 2064 39 2582 14 1964 23 2953 5 1542 27 2599 9 2034 6 1646 38 1548 4 1339 2 1770 3 1165 1 1549
1733 4.6192091139789175 -2.9877621346075429 4.7822837818206807 164 149 121 0.42048571521157369 12 1950 40 2058 46 2013 15 1351 39 1795 9 1077 14 1777 23 2305 5 1388 26 2356 27 2604 6 1347 31 2804 38 1278 25 1894 4 1093 2 1199 3 1163 19 1804 36 1407 1 932 33 1072
1735 4.8561014199385184 -2.9559610667462635 4.6765596321626752 166 148 118 0.54882998678362982 12 1951 40 2060 15 1563 39 1906 23 2306 5 1389 27 1532 9 1079 6 1348 38 1452 4 1094 2 956 3 1159 1 515
1736 3.3316604528070743 -3.0722860626115156 5.3480461625243452 183 154 86 0.52399533190644398 12 1575 40 2063 27 1335 9 2045
1738 4.4736655119226008 -2.8731650636318911 4.852177893637192 157 138 105 0.55673120358013339 12 1566 40 2069 15 2083 1 1324
1739 4.7076710574721972 -2.7775080892969233 4.7419534745018597 175 151 113 0.47751424256811342 12 1730 40 2072 15 2091 39 2245 38 1747 2 1638 3 1327 3 1441
1741 4.41195056547269 -2.6450546209827852 4.6348242101397057 161 136 96 1.6453415502772586 12 1966 40 2077 46 2471
1742 4.0985440328291247 -2.3344732903440919 4.2394933108625743 72 56 41 1.8556918590054046 12 2296 40 2081 13 2365
1743 2.0844355183144065 -2.7010198796973195 5.8000805603663759 74 62 48 2.1005195267364467 12 3485 40 2084 23 1361 31 178
1744 2.6688030400175409 -2.1593746984889002 5.2570666057234199 153 64 48 0.1401726883386758 12 1287 40 2092
1746 4.6816515271191061 -1.7875305556368952 4.4499149454618179 40 31 19 0.78751593182463675 12 1985 40 2097 46 1836 13 1732 37 1206 9 1014 28 1686 23 2345 27 2689
1747 4.019691568669181 -1.8572613546521166 4.7490161184324799 216 142 127 0.90974147830064955 12 1984 40 2098 46 2489 13 1948 37 1197 9 1763 7 829
1748 2.4775565970799565 -1.7832752478190079 5.4648250866117261 243 187 169 0.87465663920645687 12 1990 40 2104 13 1959 39 2198 14 1636 23 2358 5 1321 6 2113 31 1812 25 1963 28 1664 2 1830
1749 1.9013591479831748 -1.7285879961476716 5.9173982673475205 207 135 116 1.4408411957551663 12 1227 40 2108 15 2902 28 1991 4 961 3 627
1750 1.7721868624034227 -1.7139097876756533 6.0789355996736774 208 150 135 1.7004420700011398 12 2253 40 2112 23 2113
1751 4.5515274378586241 -1.2569021796564064 4.6554661263514108 154 132 83 0.56470980079765465 12 1999 40 2119 46 2485 13 1967 37 1763 9 2151 14 1884 5 2533 31 2357 3 1410 1 1104 33 983
1752 2.9825424401351435 -1.409565782742876 5.3537799365476477 91 49 18 0.61029408326948065 12 2272 40 2120 15 2211 6 1448 43 1032
1754 4.6331740941378818 -1.2062086028455314 4.6563533991980943 130 111 94 1.7203786904438563 12 1066 40 2126 14 2747 25 2332 2 2670 19 1880
1755 4.2200435436361428 -1.1902390198586392 4.8481198970915846 67 26 6 0.54381551481246393 12 1061 40 2127 27 1768 6 755 3 1631
1756 4.2005888284753903 -1.0893634038511504 4.8838793417271518 143 40 36 0.59760166302554751 12 2287 40 2134 46 2499 13 1976 37 1299 28 2934 15 2822 9 2193 14 1867 5 1494 6 1466 31 2098 4 1259 1 669
1757 4.0110399137671111 -1.084007881408527 4.9741610373204619 207 145 109 0.52451365875276579 11 1223 12 2016 40 2136 15 2271 13 1979 42 1086 39 2370 23 2424 5 2496 6 1470 38 2012 25 2314 4 1261 2 1879 3 1403 1 1458
1758 4.4038340602985073 -1.0351306318366356 4.7989776285210954 197 131 104 0.59465494152758525 12 2017 40 2138 46 2506 13 1377 37 1453 28 2097 9 1440 39 1374 14 1865 5 1886 26 1782 6 1471 31 2103 25 2309 3 1352 20 1130 36 1475
1759 2.098521815035197 -1.2575935624428298 5.7732863992269001 203 136 105 0.31363890083605855 12 2013 40 2140 15 2698 28 2034 39 1711 5 1327 26 1763 6 1071 25 1644 2 1328 3 733 1 1074
1760 4.0396195194175855 -1.0401639770387094 4.9748664977431076 54 33 37 0.5163638589759193 12 2019 40 2141 46 2514 13 1983 11 658 15 1480 42 1095 39 1722 14 1860 23 2959 5 1895 27 1950 9 2849 6 1475 31 2114 38 1860 25 1288 4 1269 2 2072 3 1243 1 1098
1762 4.1996362990093425 -1.0170705718516473 4.9043499133120543 58 49 23 0.57609529233582757 12 2024 40 2143 46 3132 15 1865 13 1984 9 969 39 2309 14 1859 23 2438 5 1896 27 2481 6 1481 31 2115 38 2786 4 1763 2 1883 3 1552 1 1462 33 821 36 1483
1766 1.1310519519793509 -3.0429682296191141 5.3915832373650581 193 177 151 0.23245015511793488 40 2152 9 2623
1767 2.4892194210889591 -1.3288698058940478 5.6066447915857855 199 121 98 1.1297866082880357 12 3239 40 2156 46 1568 5 2559 1 1474
1768 4.6788829877021865 -1.0413270613847587 4.7040301878188426 68 55 39 1.6142847820086594 12 2288 40 2162 46 3118 39 2372 15 2829 6 1831 38 2782 2 1588 2 1874 3 1539 3 2373
1769 3.7334881668988058 -1.1388867277569099 5.0866816196429019 81 38 32 0.5926736427033843 12 2284 40 2163 46 3120 13 1755 42 774 5 1256 14 1661 6 1467 15 2261 4 1750 2 2080 19 1650 36 906 1 1459
1771 1.6588335932326399 0.008749348903382085 6.4690236482484451 103 91 79 0.83523710782297689 12 2536 40 2166 46 2321 13 2198
1774 2.4823976178992639 -1.1970061960403655 5.6590212477636088 179 114 81 1.1682404114493714 12 2292 40 2177 39 3483 43 1992
1775 3.9427092799926542 -0.99395411011436807 5.0277499420049754 173 153 128 0.50421591068271554 11 1805 12 3067 40 2184 13 3598 6 1519 38 2789 4 1453 2 2309
1776 4.5089932185558812 -0.93052879638031549 4.792798581641021 147 129 102 0.60875336485525666 12 2315 40 2185 6 1852 2 2068
1779 1.3727317388807891 -1.3128165637400593 6.6798975093769641 97 57 37 0.59032668091954377 11 3583 40 2193
1780 1.2357522698906147 -0.93111247093030469 5.6171176988413745 54 45 36 0.56603484329421039 12 3049 40 2202
1782 3.0717924350465005 -0.80260385950671653 6.008953655761232 26 18 7 1.1699558659921057 12 3042 40 2217 46 1924
1783 2.2644865729776771 -4.1434294535581193 5.3140640702890272 115 104 84 0.15811663975347118 12 961 40 2218
1784 1.6960548372882285 -0.81127532607271169 6.32200229672363 49 39 30 2.5277658101251883 12 3032 40 2219 37 3173 28 2962 16 2730 46 3318 25 756
1785 2.1776079561945685 -0.74680079308237124 6.0172008344258829 118 105 96 0.83647990369894853 12 3030 40 2222 46 3160 11 3433 15 3653 13 2751 39 2634 14 1810 10 2401 23 2461
1786 1.0781399577174291 -3.0972160268308966 5.3474892271101258 191 179 154 0.11020570181230668 11 3107 40 2227
1788 2.265724388586789 -0.63385026593038463 6.0022587090091601 101 85 73 1.8875594591943876 12 2349 40 2231 13 2374 28 2966 16 1400 42 2070 5 1544 14 2823 44 1572 37 3192 6 1897 43 2116 8 1752 34 2025 18 1488 29 2398
1789 2.6315341957486407 -0.58687276056848114 5.6882766199978496 97 81 68 1.0332061112972131 12 2358 40 2232 46 3167 13 3639
1790 4.3225493848580614 -3.3368938746940682 4.9190904768249846 156 141 119 0.67406125456737853 12 1842 40 2239 46 2045 15 2029 39 1975 23 2282 5 1582 26 2327 9 1992 27 1344 6 1642 38 1584 4 1538 2 1754 3 1850 1 1219 33 942
1791 4.0044291255558697 1.272749066846353 5.9456862492020752 114 103 84 0.80272771105608109 11 3184 40 2241 34 2572
1792 1.8752168027549716 -0.52315789495859533 6.2146504916647007 85 73 61 1.1220572370200568 12 2057 40 2250 46 3178 12 3010 15 3220 37 1792 9 2888 39 2607 16 1410 14 1306 43 1632 45 1267
1793 1.627811656889361 -3.6261032552899195 5.2734491424481718 170 169 139 1.6461151621465024 12 3354 40 2254 5 2315
1794 2.5267805020798058 -0.41146531015398913 5.8680954513918735 38 26 14 1.2290265157091655 12 2398 40 2258 46 1956 28 2983 20 766
1795 4.311251014098529 -3.184157054187009 4.9264519335434596 159 147 121 0.37882169527579385 12 1935 40 2259 46 2010 15 2042 28 2838 39 2569 5 1562 26 2343 9 2011 6 1689 38 1566 4 1554 2 1627 3 1869 36 1398 1 846 33 1060
1796 2.3529872205114932 -0.43207942079685391 6.0140264993978096 30 19 7 0.81838222739836741 11 1982 12 2060 40 2266 15 2855 13 2399 28 2679 39 2418 20 1156
1798 2.5871513786042413 -0.35544192561415466 6.0125501242958226 41 29 17 1.7454590340706706 12 2404 40 2278 13 3673 15 3193 25 2273
1800 1.9636663814255346 -4.2162813133009003 5.2580808824037666 68 65 58 0.32622862606173941 12 2428 40 2295
1801 2.186739271485914 -4.1647031205483263 5.118157683926623 58 48 36 0.40418990822010015 12 2382 40 2296
1802 3.0543150800226302 -4.1145650145012542 4.8144180847663565 162 53 65 0.27742392738713673 12 2432 40 2297
1803 1.7577137118221211 -4.3567004655144945 5.8001985109895253 58 51 39 1.0217039168822255 12 2114 40 2303
1804 4.0488866653563642 -3.7577957049322226 4.3227891938321541 40 28 12 0.24663199392892632 12 1838 40 2309
1805 4.3557533667093589 -3.6483898250031075 4.9110411595041743 129 117 92 0.56291560610445701 12 2470 40 2311 15 1987 9 1699 39 2483 5 2322 26 2939 6 1736 31 2771 4 1503 3 1820
1806 1.0491886670189108 -3.5951457182009197 5.2284840859562243 167 162 143 0.0059664213720483656 12 2451 40 2314
1807 0.9529467529133695 -3.624385614867871 5.328691751405942 86 82 71 0.47958760935809142 12 2396 40 2315 46 2946 38 2565 4 1921
1808 0.99363185526698106 -3.5892359967543457 5.3014545232855124 91 88 76 0.5309518155242231 12 2464 40 2317 38 2566 2 1476
1809 0.94337196026480119 -3.5235563633848908 5.3006414452040476 80 76 65 2.1453367958980545 12 2100 40 2318 46 2950 46 2951 15 3538 4 1792 2 2011
1810 0.89005600861638889 -3.5408203251286361 5.3523625989493393 141 137 126 0.90883743737615597 12 2099 40 2320 9 3475 39 3514 38 2568 4 1514 2 1624
1812 4.3574831091223665 -3.6500601474112591 4.912887912449917 129 117 92 0.53086611374426462 12 2107 40 2325 15 1712 9 1963 39 2091 5 2152 26 2303 6 1982 31 2229 4 1306
1813 4.1926864174433751 -3.5108288412278075 4.9872824098127868 142 128 102 0.7282297024308283 12 2117 40 2329 46 2968 15 2009 9 1975 39 2168 5 1594 7 1085 6 1731 31 2238 38 2573 4 1522 2 1527 3 1832 1 1207
1814 4.3399523971297214 -3.4928150966844709 4.91764051100352 140 128 103 0.51496801466928166 12 2118 40 2330 46 2969 15 2010 28 2819 9 2387 39 3276 5 1564 6 1905 38 2574 4 1518 2 1526 3 1834 1 1259 33 1047
1815 0.96030457200355523 -3.300275795092328 5.4042272302523759 162 151 132 1.4860657470017919 12 2111 40 2331 46 2970 28 1168 9 1355 7 865 26 1171 27 1380 38 2589 25 873 45 1617 2 1480
1816 3.3609613582692908 -3.555935049142577 5.3408936553087774 100 82 57 0.4320367712279386 12 2123 40 2332 46 1912 15 1725 9 1706
1817 4.8787310504649142 -3.2692775899718902 4.6671745718128115 151 138 112 0.49937475688625926 12 2139 40 2337 46 2042 15 1925 28 2833 27 2581 6 1809 5 1574 4 1544 2 1766 3 1854 1 921
1818 4.1805956078620685 -3.3663074974909564 5.0070211523460424 161 148 113 1.370142334860972 12 1917 40 2338 15 2027 28 2829 39 2124 5 1583 26 2329 9 1996 6 1641 7 1149 31 2789 5 1374 38 1585 4 1534 4 1537 12 1916 2 1750 3 1849 19 1789 36 1391 1 838 1 1216
1819 5.0375776744549468 -3.2576401656347023 4.610860606149414 148 136 113 0.48914997849816605 12 2140 40 2340 46 2980 15 1926 5 1572 6 1808 38 1576 25 2459 4 1541 2 1760 3 1856 1 1270
1820 1.0558132233154263 -3.163478774119914 5.3411171873314549 138 129 112 1.9367859848671674 12 2127 40 2341 39 3292 2 1515 15 3556
1821 1.0490391395202281 -3.0706044732315942 5.1811440513342717 186 174 154 1.9186817056426122 40 2344 46 2731 5 1585
1822 4.0672269325721553 -3.3229825782592477 5.0395217970982893 73 55 36 0.43942037505940845 12 2478 40 2346 46 2039 4 2027 2 1598
1823 3.7986543764151537 -3.3396580914816676 5.1574056204116072 191 135 92 0.49859968290472828 11 2443 40 2347 46 2982 5 1577 26 2335 9 3821 38 2585 4 1325 2 1878
1824 2.4627081208663202 -1.4786639920880722 5.5367529201018169 211 135 117 1.7984382255747291 12 2264 40 2355 46 3252 13 1970 39 3447 15 3714 5 1879 6 2170 15 2765 2 1870 3 1526
1825 0.98992407356414591 -3.5456314198983145 5.225914068175511 91 88 76 0.011338374526017277 12 2098 40 2357
1828 1.0980085247609277 -3.1198692640542096 5.5390229046726214 193 177 151 2.0268697400576063 11 3261 46 1052 9 2335
1829 3.0543150800226302 -4.1145650145012542 4.8144180847663565 162 53 65 0.27742392738713673 12 2463 40 2366
1830 3.1595422293786775 -3.2297760413886651 5.4359839338867122 177 157 121 1.5318081936448051 12 3419 40 2367 4 2053 2 1465 2 2645 3 1921 45 1613
1831 4.7697391674352909 -2.9750169755591158 4.7192540071256115 166 151 125 0.50922426062386961 12 2166 40 2373 15 2067 39 3311 9 2030 5 1541 26 2357 27 2608 6 2112 38 1693 25 2209 4 1575 2 955 3 1160 1 1306
1832 2.1867392714859188 -4.1647031205483378 5.1181576839266389 58 48 36 0.40418990822006817 12 2602 40 2374
1833 4.4882199556275646 -2.949463319164646 4.8537675114445111 57 44 27 0.75547252321695935 12 2175 40 2381 46 3002 15 2641 9 2329 39 1144 5 2372 27 1042 6 1994 38 2276 4 2122 3 2237
1834 4.815953183508368 -2.8303274438227088 4.6881794558714738 51 35 3 0.58210579122952666 12 2183 40 2384 46 3009 15 2084 39 2234 14 2583 5 2167 6 1874 38 1523 4 1586 2 1499 3 1903 1 935
1835 1.1263380272583905 -2.8591626146137563 5.4520428500782652 197 177 152 0.42520549460328577 12 2169 40 2387 2 1491
1836 4.9894062182846115 -2.7915302610602888 4.6106700018704423 158 145 126 0.44698667553870303 12 2186 40 2388 46 3011 15 2088 28 3222 39 3324 14 1956 5 1707 6 1662 38 2638 2 1505 3 1438 1 1416
1837 4.8415292156461458 -2.808210690343441 4.6790643518442616 160 142 109 0.44460524961346592 12 2185 40 2389 46 3010 15 2086 28 2855 9 2313 39 2236 23 2315 5 1529 27 2069 6 1660 38 2637 4 1587 2 1503 3 1433
1839 3.9230160931567788 -2.3861653241601846 4.4989451445452389 38 25 15 1.2046445110643798 12 2206 40 2392 46 3039
1840 4.2148788209663026 -2.816188032502112 5.0789463256395502 177 152 94 1.3417821685811229 12 2193 40 2397 31 2819
1841 3.9565678394344972 1.2439149391800588 5.8706664009293803 114 103 84 1.3171257670795053 11 2911 40 2398 46 1106 37 695 8 687
1843 3.4625408817187662 -2.2153971190510999 4.0223045960168209 82 67 48 1.3875323430970532 40 2407 46 1786 28 2864
1844 1.7191181810251353 -0.37414432575718193 6.1048983490488693 78 65 51 0.44799566448908162 12 2978 40 2409 13 3685
1845 2.7030659867505569 -2.7426328062901795 5.6063908289189168 59 43 27 1.6610494151865709 12 3467 40 2410 23 1363 31 894
