# 3D point list with one line of data per point:
#   POINT3D_ID, X, Y, Z, R, G, B, ERROR, TRACK[] as (IMAGE_ID, POINT2D_IDX)
# Number of points: 403, mean track length: 3.0587557603686637
18143 2.335028608690247 3.934950270196127 4.4469382368678101 217 235 254 1.9207519647494007 84 614 75 243 27 843
18144 0.43137374969999687 3.4779387960361325 4.3073637928779025 196 183 211 1.1341367678771543 27 1031 84 624 14 1033 93 441
18145 3.278036076746881 1.5141686375199621 5.3785762427981281 192 154 115 0.72118035346827314 99 785 80 915
18146 4.2726331494143315 1.6896790279710612 4.4441323600992604 231 206 179 0.47670713599685738 27 895 84 657 80 1070 83 698
18147 3.1850556096071787 1.1132575423673594 5.5680565846364622 144 110 72 1.5349445618864275 27 1299 84 660 80 1080
18148 3.3546446718566165 1.0640555503868774 5.3574721159769325 154 121 88 0.52228619449634628 99 835 84 665 80 589
18149 2.9612768740287954 0.74809428628884655 5.7422830991058831 178 140 95 0.86879426657905123 27 886 84 676 80 606
18150 3.3593726205720347 0.88431245777210343 5.3491891226417492 184 150 112 1.3786884516195601 99 800 84 678 80 599
18151 3.76554643462477 0.75102383208636081 4.9954913045398284 204 181 150 0.53455640881366262 27 1411 84 692 80 596
18152 3.4123475261002776 0.30750840256111706 5.4039090096578795 190 160 124 1.084162597017142 27 1415 84 718 80 618
18153 4.5029473877704493 0.68591313134216436 4.4260548734362528 173 147 124 0.1878548327303694 84 721 80 1473
18154 3.0508815119516326 -0.030686511067640143 5.7472262756279733 126 93 52 1.6113540820205745 21 721 27 1416 84 731
18156 2.5246395590835089 1.5987351156181164 6.017010622724789 167 126 80 1.7919114602489676 27 1279 84 772
18157 3.3493403888788045 1.059084729276198 5.3491934578307889 154 121 88 0.81071392980760171 27 1306 99 795 84 788 80 675
18158 3.6678998706171586 0.41409992665154605 5.2279513514146814 203 177 144 0.66303148063938644 84 805 80 980
18159 2.6901894433233164 4.0001035895705126 4.2953021326087724 75 74 88 1.2645975105814156 99 747 84 870 80 482
18161 2.0465355101211022 2.8870658431684229 6.2637559058180194 149 110 69 0.41417852806343541 27 1928 99 879
18162 3.7944636213411025 3.5031815917157387 4.6844588472288562 160 110 87 1.8246336998997705 99 771 84 904 80 516
18163 1.1594983110602786 1.97029640029119 7.1922007248746116 101 77 40 0.033907051243346788 99 1167 84 912
18164 3.6102822866566329 2.9724301073767609 5.6066900377630269 214 209 223 0.28425981301779679 99 1009 84 921
18165 2.5246395590835089 1.5987351156181164 6.017010622724789 167 126 80 1.7919114602489676 27 1368 84 939
18166 2.4329311541678087 3.7128119557230197 4.483546217324557 195 196 200 0.99677504456587041 27 1365 84 962 80 641
18167 3.9170827300053941 1.292096398253133 4.8227387421475978 227 205 178 1.8019868975025766 99 808 84 976 80 913 83 475 27 1317
18169 2.4330453770491909 3.6646249221270573 4.6108459711823784 192 187 183 1.5665667490404678 27 1767 99 883 84 986 80 989
18171 2.4016997880177753 4.0289990158983144 4.2569682111534703 213 215 227 1.1805384283927494 27 1754 84 1012 75 523 14 1609
18172 2.0640056068839341 4.1681601381546782 4.7657892093337253 210 209 215 1.2356515913760515 27 2072 84 1015 75 313 14 1066
18173 2.24630251740252 4.3010833986030885 4.4149627018662869 198 206 225 2.2793246803311815 27 1741 84 1021 80 751 75 875
18176 4.0483800181477783 1.929685501899989 4.6566959762483702 214 190 169 2.3793386584190763 99 1108 84 1047 80 1742 27 1850
18177 2.2609147451766165 3.8797533963432507 4.3657982194317153 122 125 142 1.5266036038196633 27 2174 84 1061 80 760
18178 2.3579862976256836 3.9309486359480852 4.7486331881164894 220 221 215 1.4027652101831372 27 1835 84 1069 14 1792
18179 1.4790062041300449 1.5180823739898233 6.9643487416907002 147 113 66 0.70657033254847934 99 1313 84 1098
18180 4.4127253954509138 1.3186120728001127 4.3561414650280179 174 148 125 1.6162885297169214 27 1393 84 1131 80 1267 83 1224
18181 2.999630990069813 0.41032943481735829 5.7326445343240859 135 103 62 0.66834631132840094 99 1631 80 1162
18182 3.6608315246578038 0.49185267238824276 5.1281323501882161 164 139 109 1.7835914517547595 27 2028 84 1149 80 977
18184 3.0439812148353265 0.203430541241993 5.7168850360218277 171 134 89 1.1918205096487988 21 1311 27 2010 84 1152
18185 3.5717915193153624 0.25810949130241145 5.2513269813000143 210 184 147 2.5160011514825826 27 2044 84 1160 80 979
18186 0.6204299008930374 3.1130019144759253 4.2443165213548184 54 53 67 0.19817843318589365 99 1910 84 1182
18189 2.2110181561615145 3.273855390374703 6.2479305576544508 180 142 99 1.6491292152805768 99 1507 84 1230
18190 2.2933978867815665 3.1750480673631061 5.8294535365206865 183 182 162 1.745642513842131 84 1235 14 1371 27 1262
18191 3.4846258363803377 0.10951774612988485 5.3646189774370869 201 171 133 2.3065302810591826 27 2679 84 1279 80 1347
18192 3.5142321661859457 0.16612546958122912 5.3138410441253079 203 173 135 0.082380007580197367 27 2048 80 1364
18193 3.545324705160243 0.21417190148617474 5.286492859309349 200 172 133 1.7274497376232745 27 2045 84 1291 80 1374
18194 3.5717915193153624 0.25810949130241145 5.2513269813000143 210 184 147 2.5160011514825826 27 1871 84 1293 80 1008
18195 2.0182544647038965 1.2655273649950014 6.5547228906743946 208 203 194 2.2597727919071624 84 1300 14 3273 99 2031
18196 4.4634712967706767 0.70257160459973822 4.3656186387879714 204 178 153 2.7587740820697744 27 1922 84 1303 80 1479
18197 3.9966781606806707 2.8445495160705216 4.5672279999887673 172 144 141 1.6110127109097427 99 950 80 1644
18198 3.0439812148353265 0.203430541241993 5.7168850360218277 171 134 89 1.1918205096487988 21 1662 27 1857 84 1312
18199 3.6616352528943068 0.45578698443269205 5.2189341739662272 147 120 93 0.26231707075223565 84 1314 80 1035
18200 3.6608315246578038 0.49185267238824276 5.1281323501882161 164 139 109 1.7835914517547595 27 1865 84 1323 80 1039
18201 3.6798253886029526 0.51732133047167272 5.1104515234388144 213 188 157 1.3419317706229614 27 2717 84 1325 80 1416
18203 2.6104426617620411 0.1708867275535319 6.0968220285609549 124 90 53 0.58558610791663634 99 1612 84 1332
18205 3.8054913544300235 0.70967225983283688 4.9599775865110125 207 188 158 1.5150502855830024 27 2729 84 1341 80 1444
18206 3.8550236288976913 0.89644490004877997 4.8557912652402022 174 149 119 0.50697787657507343 27 1390 84 1359 80 1474
18207 4.2972923916230323 1.1562064532270016 4.4652225768894374 147 120 99 1.1560693710478751 27 2024 84 1371 80 2176 83 1735
18208 4.0269215259030666 1.1189762935937635 4.7720866001608027 217 201 168 1.2828361167761695 99 912 84 1379 80 1500 83 884
18209 2.4522289558838999 0.53620668128823534 6.2457903478479375 135 99 54 0.81430924601307997 27 1975 84 1382 21 1232
18210 4.4127253954509138 1.3186120728001127 4.3561414650280179 174 148 125 1.6162885297169214 27 1412 84 1384 80 1286 83 1712
18211 3.4045894934910552 1.1506794788179473 5.3268975006428239 192 158 120 0.43624479910541147 99 1597 84 1400 80 1476
18212 3.1993923192033464 1.1243091353919863 5.4956299100855404 190 152 113 1.5644902971518129 99 972 84 1406 80 1101
18213 4.1685219199061985 1.5022180043564799 4.5405261878434731 223 200 176 1.8663169613177653 99 902 84 1407 83 957
18214 2.4428249459697886 1.1027821664206821 6.1788190069962035 192 149 99 1.3849671537133403 84 1425 14 1244 27 1187 99 945 21 966
18215 1.9767363726924696 1.1753820759731279 6.550572094027169 119 84 52 0.82011054802114491 99 1534 84 1441
18216 2.905767854605545 1.997056256291545 5.6333449820217822 202 162 113 0.67402664593174388 99 1121 80 891
18217 1.6536668073513816 1.5586600189977171 6.8203115632821305 85 55 29 1.7626177303673014 84 1492 14 1220 21 1264
18218 3.9817583173535227 2.507414516256997 4.6613558531294128 214 199 193 1.5684209910195361 80 1616 87 712 77 557 14 1703
18219 2.9927521749932038 2.1651526237077321 5.5495550114584198 204 162 119 0.95164157637152691 99 1124 80 548
18220 2.5518602840614073 2.0000637254488454 5.8937745135724571 62 58 47 1.3108999000815618 27 2910 84 1500
18221 4.3337739488716016 1.8060144053273028 4.4150756949910575 213 186 160 1.0105347338377311 99 1632 84 1534 80 1741
18222 1.8424964143620171 1.1213954663055345 6.6580762007479999 114 81 50 0.3019405870203351 21 2270 84 1545
18223 4.0050712839039182 2.62607897708466 4.5696979129583424 177 156 150 0.9588597529542443 27 2876 99 2280 80 1311 14 2297
18225 1.3153963441765788 2.163399508848634 7.0081259842027421 0 0 0 1.366058730505453 21 2249 27 4412
18226 1.8351244299514751 3.7933078337290591 4.7313978600568465 66 63 70 0.31492767776834563 99 3144 75 2228
18229 4.1315234005120409 2.4971400825576935 4.443290245171359 221 197 184 1.7904919881837802 27 2869 84 1665 14 1707
18230 3.5076540756798602 1.293755237809447 5.1967815815917442 193 162 133 0.78143886593507605 99 2142 84 1670 80 2205
18232 2.3082222397088765 4.0200231148390637 4.2577340318960735 221 238 254 1.0966017662446026 27 2068 84 1753 14 2413 75 643
18233 2.5218465484776464 3.9654881713820993 4.198642112953209 229 247 254 1.6522478026482401 99 3128 80 1240
18238 1.7985857993168344 2.4555665702585747 6.5208044249327859 54 45 41 0.96104350723459653 99 1984 84 1819
18239 1.6408176154587533 2.2829766211111524 6.506859292135041 93 92 87 1.5114395469199486 14 2336 75 683
18240 1.210970680197146 2.1788493025790818 7.0978592744576421 98 73 44 1.4012599048152985 99 2278 84 1821 21 2248
18242 1.7060940484192983 1.9796118139260721 6.7724629471600455 0 0 0 0.30065051286212541 27 3949 90 7233
18243 2.9761821421852819 2.3294969918695396 5.5239109763189962 155 115 80 1.2322490006574585 99 2028 80 1570
18244 1.4551726114183279 1.566703572017824 6.953655491086006 129 99 64 0.89168337114806417 21 2259 99 1991 84 1868
18245 3.7080003278886657 2.487370223208861 4.8803997750600869 220 218 232 0.0389548302805608 99 1550 80 1605
18247 4.0194644782926421 2.4842262507706359 4.5847013184788601 210 189 184 0.98670157308106599 27 1962 99 1562 80 2046 14 1706
18248 2.7895045965183631 1.9547242363147808 5.7875084963502266 152 110 68 2.0162944575865294 99 2040 84 1883 14 1698
18249 4.3159730485815579 2.4646979092384793 4.3280237508672448 227 204 183 0.98785263175915239 80 3479 14 1716 85 1070
18250 4.1257696097984242 2.0743635155449898 4.5509180539177922 168 144 132 1.9627044113598118 27 2847 84 1916 80 2080 14 2251 99 1589
18251 1.8424964143620171 1.1213954663055345 6.6580762007479999 114 81 50 0.3019405870203351 21 1812 84 1918
18252 2.5138933084885475 1.3064002352452186 6.1178171676659501 131 96 55 1.5735260986658035 99 2053 84 1937 14 1735
18253 1.924265428476861 1.0224731960528104 6.6734535512914164 113 82 54 1.2639230330994367 84 1942 14 1969
18254 2.1923264841631833 1.0573702955997675 6.3738533323883964 145 107 62 1.0354785638847266 99 1702 84 1945
18255 1.9448033781850624 0.92749242538698828 6.6415115783645593 77 50 32 2.0592748781346772 27 2888 84 1950 21 2278 90 1418
18256 3.2556636402646029 1.2289863491178745 5.4328544353844537 141 110 79 1.8620393188113484 99 1583 84 1968 80 1477
18257 3.3009775192850475 1.1521029117819068 5.4115317556286922 194 160 114 1.9289480774566339 99 1592 84 1980 80 1469
18258 3.4984469695186773 1.1037927431334207 5.2030416146387761 210 181 147 1.8008601373827802 84 1989 80 2231 99 1613
18260 4.0311556660689289 1.2701189605273875 4.7625290465943264 221 201 176 1.7263067996506265 99 1649 84 1996 80 2841 84 2545 83 1355
18261 3.1671362312260256 0.92855346636019731 5.5658571151147536 155 119 83 0.68572685721436732 99 2348 80 1433
18262 4.4470691135367044 1.3785725553901513 4.3155143204391715 216 190 167 2.0224140295895623 27 3107 84 2002 80 3314
18263 2.9822162472095117 0.80563372740274164 5.7292278393134319 189 151 104 0.57957282448258529 99 1593 84 2003 80 1412
18264 3.5080911071117193 0.9594043038174962 5.2232633607925747 160 130 104 1.0881510001788672 84 2011 80 1461 99 1705
18265 4.3466524954010488 1.241564406503751 4.4536890524177464 156 132 110 1.7802522527678741 27 2732 84 2018 83 1842
18266 3.0430548872768912 0.73083756991876669 5.6787856477303098 157 122 81 1.5926078599685194 99 1598 84 2019 80 1407
18267 4.4479660742538343 1.2729673864163675 4.324566273755952 164 137 118 1.4185393778351798 27 2026 84 2021 80 2156 83 1226
18268 2.7314245182611128 0.54145514708822973 6.0063295295376395 170 133 88 2.1342728269210856 99 2126 80 2373
18269 4.2896632388811309 1.0948756820422965 4.4632719006387127 215 192 161 2.4841482470769498 27 2029 84 2032 83 1938
18270 2.7459486154351058 0.47155208144066024 5.9974783898394088 159 121 74 3.0808807360609531 99 2145 80 1354
18271 4.360207504889213 1.0696572727894784 4.429200948914584 159 132 111 2.0673941065637482 27 2039 84 2044 83 1725
18272 3.8115458478215842 0.8147307485626315 4.9714592505940418 174 149 119 0.98255078422662123 27 2747 84 2051 80 2259
18273 4.0131067423281506 0.86728499137334758 4.7671203016573589 185 162 138 1.2178620811109813 27 2723 84 2053
18274 4.4202519924180041 1.0150256295853655 4.4469299638243429 220 194 167 1.1137777515302505 84 2056 80 2813 83 2449
18275 2.9807809613010625 0.44144229235320526 5.7359552006622927 182 147 108 0.2497621583779063 99 2184 80 2370
18276 3.7510839426476044 0.6820884411962046 5.0315655771702712 197 174 141 0.99647187923564184 27 2736 84 2071 80 1437
18277 4.6205274305967317 0.91631601979245481 4.2945763294720356 162 136 113 0.7992720873680047 84 2090 80 2196 83 2136
18278 3.7139570368041714 0.52612223000187519 5.0763493584357953 205 182 151 1.2976567630987024 27 3800 84 2096 80 2313
18279 3.6358055112431815 0.49115951253226597 5.1507529676831725 210 184 151 1.3412162910727601 27 3117 84 2100 80 2323
18280 2.5634189777837606 0.020542582050932734 6.1631566910773508 168 132 80 2.1322208032687442 27 1997 84 2117 99 1625
18281 3.6531522108782086 0.42071661384681042 5.1470533689488001 156 131 101 1.7488749784808792 27 4707 84 2121 80 1149
18282 4.5422524648445881 0.7090164657735003 4.4256797036705517 163 136 115 0.48948986525463639 84 2129 80 2755
18283 3.5673502315806522 0.30059370281929332 5.2456245321325889 157 128 96 1.8399733687911415 27 2701 84 2135 80 1386
18284 3.5546656284542064 0.24029887948397177 5.2730791607050973 164 133 102 2.0248829185071626 27 2688 84 2154 80 1379
18285 3.504454275536804 0.19828921202236849 5.3220794894176713 206 176 140 2.2794762905166208 27 2691 84 2159 80 1368
18286 3.4950789190261742 0.18062230235338952 5.3422626806717659 154 125 91 0.23590653302328982 27 2686 80 1363
18287 3.5014900737752157 0.13501241755010274 5.3393483081976942 153 123 89 2.1654132262230124 27 2682 84 2169 80 1359
18288 4.5388167609502084 0.51628788477201193 4.3224927433393061 149 122 95 1.59782263622599 27 2063 80 2254 83 1836
18290 2.9116278702471576 -0.14907434934383865 5.8442341735097383 165 127 80 1.6929710850985475 27 2726 90 4341 84 2180
18291 2.9384751548284616 -0.18060683164175492 5.8157310376561133 177 141 93 1.2083433192511472 90 4321 84 2188
18292 3.8925888967242335 0.17765111052711799 4.9867593988043009 161 136 106 2.4732406317752047 27 4827 84 2191 80 2351
18293 3.0126645538210823 -0.15408518370196941 5.8144517233875073 175 137 88 0.90719439948849567 21 1895 27 8030 84 2193
18294 4.0985428068428646 1.6320450159897544 4.6279737100688845 224 202 173 2.2463432790083062 99 891 80 1552 83 949 84 2213
18295 3.3233933829639204 0.18258152924225732 5.5314778438307233 145 115 77 1.575753243887265 27 3485 84 2216 80 3903
18296 3.4556274706894516 0.061972173663730631 5.3767250598522569 156 124 86 0.373444968087003 27 4757 84 2228
18298 3.6358055112431815 0.49115951253226597 5.1507529676831725 210 184 151 1.3412162910727601 27 2718 84 2258 80 2498
18299 3.7139570368041714 0.52612223000187519 5.0763493584357953 205 182 151 1.2976567630987024 27 4704 84 2259 80 2504
18300 2.1854627495695125 0.13197970982454652 6.3461274831650982 112 74 35 0.40786109729707964 21 2313 84 2280
18301 4.4479660742538343 1.2729673864163675 4.324566273755952 164 137 118 1.4185393778351798 27 1864 84 2291 80 2564 83 1707
18302 0.22928701319452394 3.9666633623720409 4.4825783070928571 60 64 74 0.011867987399491818 99 6499 75 1079
18303 0.62100349939809896 3.6466748574172789 4.02461142725108 189 188 209 1.7619980901062682 99 4645 86 1171 82 5020 73 5533 14 5117 91 1446
18307 2.5428867883826802 5.4056914916188772 4.7602292007168625 124 112 126 1.8656400928115009 14 3715 27 4328 75 1280 86 1104 82 3849
18308 2.2638013369101206 4.2486749938095789 4.4860114677807577 220 236 253 2.3534422840353675 27 1828 84 2378 75 424
18309 1.7850618736894439 3.760320270124248 4.9699517189901119 49 46 53 0.92596862078911246 84 2393 14 3035
18310 2.4807709993660754 3.9253541172752491 4.1992415571939041 203 210 242 1.7231230412155036 27 2171 84 2395 80 3692 14 3043
18311 1.8008161551676418 3.7313523684096097 4.9776574490384613 177 176 182 2.0782449220737207 99 2455 14 3039 75 862 91 4406 77 2455 84 2396
18312 2.0655419713110903 3.8263966395323816 4.7588726169854914 225 221 218 0.98549454535811576 27 4351 84 2403 14 3918 75 858 73 618 93 1561
18314 2.0415970780868178 3.5144457270636509 4.8512195657245751 209 207 208 0.99749247708003175 99 4755 84 2424 75 1161 14 4110
18315 3.4843383910474337 3.9454936445565969 4.9694805943581972 172 125 99 1.2047268892869047 99 1990 84 2425 80 1963
18316 3.3051920581305176 0.53773179226899059 5.4536956944279975 169 135 97 0.42234344763145781 99 2703 80 3819
18317 3.8275265176763957 0.76612898473996427 4.9408853236499271 181 159 131 0.98269819979461959 27 8073 84 2442 80 2703
18318 3.8091636318377051 0.77190828873277861 4.9484855471098212 214 191 159 0.52179250445646608 27 4676 84 2446 80 4454
18319 4.3690127368145975 1.0403592619755087 4.4211574094065851 209 183 158 1.7355357258435893 27 4723 84 2456 80 2825 83 1846
18320 4.3992641336328875 1.0617158398239217 4.3931384770307504 171 146 124 1.7603753527028916 27 4727 84 2460 80 2832 83 3412
18321 3.3879685639695678 0.69749162787408026 5.3580840121992024 155 122 89 0.6328747186799234 99 2722 84 2470 80 3117
18322 4.4340191779481977 1.1458867089694775 4.3489986249589991 166 140 115 1.2324104185219016 27 2704 84 2474 80 2863 83 1820
18323 3.8928400721209395 0.94918468809493595 4.8772150673319512 187 164 132 1.2742520105172552 27 4655 84 2479 80 4388 83 3083
18324 4.4613366590745187 1.1893703816967545 4.3270785144619577 175 148 127 1.3438657657853357 27 2708 84 2482 80 2879 83 2744
18326 3.97247970614186 1.0041758378880645 4.7370751383699128 215 192 160 2.4667744541653835 27 4658 84 2489 80 2783
18327 2.9892135546137113 0.68750347736525041 5.7186342787976345 146 109 67 0.9935212190360273 27 8253 84 2501 21 5982
18328 4.3094236323212503 1.2244779787728217 4.4572906427435752 218 194 168 0.90184558611603827 27 2738 84 2510 83 1849
18329 4.3709065334696779 1.2561217106685647 4.3691590951096586 176 150 125 0.59835161573361018 27 3113 84 2512
18330 4.2957630981691013 1.2398167585554556 4.467202435361739 175 148 118 1.2914405186104043 27 4674 84 2514 80 2875 83 2790
18331 2.8883880710575096 0.72016486458530782 5.8203177915629647 166 129 84 1.2860752607174035 99 2125 84 2520 80 1832
18332 3.1365511866916354 0.80355365754918695 5.494718957525718 169 134 96 1.566456634551032 27 2829 84 2522 80 3843
18333 3.036549196773787 0.79561792658918029 5.6671964726271815 171 136 97 0.52667243343282688 99 2825 84 2526 80 2685
18334 3.3817984509907286 0.95074912481477292 5.3316490567734904 196 164 126 1.593950374112876 99 2169 84 2527 80 2699
18335 3.1381945695684292 3.8045267637395814 4.7252033059712124 47 36 45 2.3552155104303778 99 1698 84 2528 80 1944
18337 3.4073414462987781 0.9940259248422425 5.3262581897716039 186 154 115 0.63105456072721677 99 2165 84 2534 80 2260
18338 4.4223846052358766 1.3951478484558988 4.3458146521575216 218 194 166 1.4109848170297858 27 4664 84 2537 80 4106
18339 4.3490725510835837 1.431559498551908 4.4171964341456995 220 194 169 1.6071475454302813 27 4650 84 2554 83 2757 99 2261
18340 3.1964018049521141 0.99786206269738653 5.497936453685039 182 147 109 0.94400270623804916 99 2132 84 2560 80 2277
18341 2.7592857529812265 0.93266499074078724 5.8868242938675497 112 78 41 0.48605264124565739 99 2094 84 2579 80 1418
18342 3.483874203579393 1.2651855042230495 5.2465356377753167 160 129 100 0.86494027938110374 27 3502 99 2533 84 2586
18343 2.56605081249764 0.92104630269295573 6.066821265785042 122 87 45 0.71152576663941025 27 4500 99 2930 84 2595
18344 3.1353417685725931 1.1310815564829466 5.5071262027275463 181 148 105 2.3830709169494146 99 2109 84 2596 80 2250
18345 3.3782139010017276 1.2417294308563951 5.3167049225095742 155 122 90 1.6740470858657928 99 2843 84 2597 80 2776
18346 3.3753446649142433 1.2710635749054633 5.3404790751956401 185 150 114 0.29557908365751928 99 3768 80 2779
18347 3.3196203310018402 1.2432828347509941 5.3340945236153772 186 151 109 2.3116182609269855 99 2358 84 2610 80 3079
18348 3.834510283678318 1.4806099796917702 4.8655853031939795 166 137 110 1.8943180903323498 99 2444 84 2614 80 2889
18349 3.2092843081326352 1.2588158406554726 5.4832107254808751 195 162 121 0.80816039100771897 27 4524 84 2617 80 2759
18350 3.894740660102499 1.531342263673442 4.8175244323903916 223 194 162 0.43629652669327401 99 7425 83 8996
18351 4.0147672103986638 1.7266251926648255 4.7390726460746784 220 196 171 0.91591978397363749 99 2161 84 2646
18352 2.8796691524839058 1.277771784476182 5.7644851304825249 195 157 108 1.2276918535531851 99 2933 84 2650 80 2247 14 2239
18353 4.3949320715894 1.9452378096613592 4.338251670592058 224 199 171 1.8579700120621165 99 2328 80 3412 27 2818
18354 2.7085993842349869 1.2919213156586937 5.9241138820347636 188 150 101 1.0075225104618106 99 2956 84 2659 14 3324
18355 2.920833890033649 3.5906489821166558 4.4507085607088985 146 92 123 1.1650473899518841 99 1500 80 1937
18356 2.8029251893234903 1.4471144535345035 5.8380303689357049 197 160 108 1.1258267303473031 99 2059 84 2680
18357 4.2159646816278027 2.0278387047745912 4.5488579526121917 220 199 181 0.87154540809877679 99 2150 84 2681
18358 3.1628599459796516 3.9236430314455317 4.5061615736576321 129 75 107 0.8454624587088968 99 1504 84 2687 80 1930 86 1307
18359 4.2306990737057015 2.0526317375084147 4.449380140736757 205 182 164 1.6894453078293281 99 2146 80 3427 84 2689
18360 2.4831655423336763 1.3972884441517157 6.1213548634414359 173 131 88 1.6943336161121409 84 2699 14 4988 99 2984
18361 3.0208247799679908 1.6035670203594188 5.5660004857919931 167 130 88 1.9677257504728394 27 4489 84 2702 80 2823
18362 4.0883449490855268 2.0765197244424707 4.5398241654185298 214 192 178 1.4228470263505537 27 4528 84 2708 80 3421 14 2255
18365 2.5151322934493092 3.4995545999957591 4.4835336777452097 250 252 251 0.98906772027949985 27 2146 84 2738 80 1202
18366 2.7086804065954349 3.7724228020714197 4.4011104671686407 114 113 121 1.3852016344480909 99 3104 84 2744 80 2426
18367 2.4706182894683257 3.6806389247978872 4.6442525853314942 225 222 217 1.3215340709585601 27 3872 84 2745 75 828 14 3086 93 1446
18368 2.5207518966993034 3.667245163561494 4.531872980241288 216 211 208 1.3767114283601884 99 3761 84 2747 80 1920
18369 2.5879700720439973 3.7877273905681825 4.5082769318184415 208 195 189 2.2082642467787066 27 2153 84 2749 80 1913 14 3601 93 2302 75 830 86 900 72 1872 77 1255
18370 2.6779970126357133 3.7831515356106729 4.3882232247355466 209 208 214 0.1967810687042883 99 3105 84 2750
18372 2.83802780203927 1.7283076887104907 5.7462956185325291 209 169 120 0.12835649159362555 99 3767 80 2834
18374 2.0565139488111539 1.4753778050321888 6.505553502977941 129 96 65 1.884075936780129 99 3029 84 2769 14 3392
18375 3.9737941539592421 2.8739143630481054 4.5882663793608884 200 171 157 1.1157704170480671 99 1706 80 2011
18376 3.8795869513579508 2.2009831952176966 4.7211843177655419 215 197 195 0.72487590836010829 27 2864 99 2090 80 2077
18377 3.9607384590469876 2.2445355981699855 4.6578801649154871 219 199 192 1.8231559391507932 27 2863 99 2093 80 3834 14 2612 84 2776
18378 3.9386441170326361 2.2436339567505543 4.6042163009434809 221 201 194 2.0316154157726358 27 4499 84 2783 80 3193 14 3385
18380 2.9104684294404022 1.8698349043541678 5.6633214479453242 216 176 127 0.27735819848144239 99 2050 80 2158 14 2284
18381 2.6391942819954357 1.9584625791812109 5.8681328399776813 158 142 126 1.3152679938495422 99 2026 80 2562
18382 1.9040104215000688 1.7709557726639951 6.6105263864533441 106 81 51 1.8987775379654734 99 1998 84 2840
18383 3.0224121862620472 2.2322241594779664 5.5181654188000024 184 143 106 1.0500092637425618 99 2036 80 2116
18384 4.0197812009276603 2.6060586121796967 4.4787714612161267 178 155 147 1.830397107974072 27 2874 84 2848 80 2029
18385 3.9987289224178544 2.6978022842112273 4.569985967585537 214 189 184 1.7157166332560407 27 2880 84 2860 80 3498
18386 2.1195662992548021 1.9297227091377478 6.062535879773761 164 162 149 1.8415299175147064 84 2875 14 4855 27 5661
18387 3.1398581428937367 0.61798673946178284 5.5899713630057137 155 119 83 0.75874603811816177 99 2182 84 2886 80 2490
18388 0.85377687599862684 2.580815695816459 6.3002540651579819 82 78 75 1.5819884832132407 99 3131 75 1172 84 2891
18389 2.0895508554609892 4.0678023174500764 4.6026166462186939 214 215 220 1.6316872039600296 27 4338 84 2896 14 1595
18390 3.8613862072075547 3.5240670075348124 4.6703841536849646 158 111 82 1.2260377015956143 99 2016 84 2897 80 1974
18391 3.3809031654481601 -0.028307477905050296 5.4226850356813827 196 164 125 0.63674828792269356 27 4760 84 2903
18394 3.6097600785040149 0.43240910568173024 5.2042138499917883 200 174 141 1.7562820022245458 27 2715 84 2916 80 2332
18395 3.7493620544696 0.1578595197065229 5.1115679492055435 148 121 92 1.3109811527045778 27 4794 84 2920 80 3755
18396 3.7981138296327721 0.18719635723502887 5.0802548523284807 195 168 136 1.3625244600134863 27 4801 80 4789
18397 2.6176311121340925 -0.22512891595218373 6.258668849324474 158 123 69 1.9788409555184032 27 4652 84 2926 21 4682
18398 3.79771470776104 0.21540509595656848 5.0532810791224509 160 133 104 1.7025676791903139 27 4791 84 2929 80 3781
18400 4.6309831889863382 0.57284350426466601 4.3675241221638981 158 131 102 0.038448530800887989 84 2940 80 2721
18401 3.6097600785040149 0.43240910568173024 5.2042138499917883 200 174 141 1.7562820022245458 27 3119 84 2980 80 2492
18402 3.5273751935291346 0.24183221605256172 5.2938960446460834 203 174 140 2.1292732094669278 27 4719 84 2982 80 3751
18403 4.5534980783038543 0.7403018753363575 4.2806613497871533 163 137 114 2.8071527260371241 27 2607 84 3017 80 2778
18404 3.5797989573349445 0.39315909427547135 5.2261180297690268 211 182 150 1.8915079263560814 27 7593 84 3026 80 3811
18405 2.5250435244378231 -0.0045299380394968466 6.2018255997511691 106 74 36 0.90994607200604261 27 4589 84 3028 90 4587
18406 3.5932971508472642 0.41379008549874657 5.2162236497996961 165 138 109 1.5152492607507113 27 8038 84 3030 80 3820
18407 1.9576894305211239 3.5185585050027064 5.0928420699050978 117 112 111 2.484192220021229 99 1287 84 3041
18408 4.5878425188049876 0.83740398644740033 4.2500374766443656 156 129 108 2.087017560309655 27 4830 83 2731
18409 3.7447972571213595 0.58353869178763318 5.0469061440016247 212 188 160 0.99650800946148677 27 4699 84 3065 80 3844
18410 4.3280875909730057 0.81301309414668499 4.4607089835648797 193 166 139 1.0682526396123171 84 3069 80 4357 27 2662
18411 4.6178476700249016 0.94724065783643419 4.2639043972383481 210 184 157 0.99459307349412907 84 3074 80 4230 83 2723
18412 3.7797621426825172 0.1710113905955177 5.1484519589840625 148 121 92 0.14159819772020521 84 3087 80 2993
18413 3.7493620544696 0.1578595197065229 5.1115679492055435 148 121 92 1.3109811527045778 27 3754 84 3088 80 2994
18414 3.5273751935291346 0.24183221605256172 5.2938960446460834 203 174 140 2.1292732094669278 27 3789 84 3115 80 2990
18415 3.2648724147443846 0.22454624910047727 5.675598668900764 167 133 93 0.9212433459456465 84 3128 80 2390
18416 3.5797989573349445 0.39315909427547135 5.2261180297690268 211 182 150 1.8915079263560814 27 8036 84 3138 80 3007
18417 3.7142565900990472 0.47561151244315225 5.0816090237517173 194 170 136 1.6484369702368438 27 3797 84 3139 80 3016
18418 2.8304127640619359 0.23886760022295003 5.8059059004271152 177 141 91 1.723269897313525 99 2326 84 3148
18419 3.6464222199877026 0.58783686609955677 5.1278485000531795 204 180 146 1.8550197513505171 27 4680 84 3154 80 3026
18420 4.3690127368145975 1.0403592619755087 4.4211574094065851 209 183 158 1.7355357258435893 27 3786 84 3170 80 3097 83 2448
18421 4.3992641336328875 1.0617158398239217 4.3931384770307504 171 146 124 1.7603753527028916 27 3783 84 3173 80 3099 83 2865
18422 4.61807144575533 1.3092232969391233 4.228740244766116 212 185 158 0.33447323247899141 84 3183 80 5222
18423 4.3094236323212503 1.2244779787728217 4.4572906427435752 218 194 168 0.90184558611603827 27 3109 84 3188 83 2447
18424 4.3709065334696779 1.2561217106685647 4.3691590951096586 176 150 125 0.59835161573361018 27 2730 84 3189
18426 4.2957630981691013 1.2398167585554556 4.467202435361739 175 148 118 1.2914405186104043 27 3809 84 3191 80 3112 83 3658
18427 3.0783868358769975 0.86135303063132762 5.6134584105335446 176 141 101 0.69307836941327672 99 2353 84 3196 80 2305 27 2836
18428 3.2961994702493853 0.95714567487504998 5.2664926843489157 184 150 113 1.4871372307771391 84 3202 80 3051
18429 3.3620359583177573 1.0477109575493422 5.33585131314232 152 119 86 1.361933603514875 99 2344 84 3207 80 3055
18430 3.483874203579393 1.2651855042230495 5.2465356377753167 160 129 100 0.86494027938110374 27 3481 99 2823 84 3216
18431 3.3753446649142433 1.2710635749054633 5.3404790751956401 185 150 114 0.29557908365751928 99 4054 80 3081
18432 3.1227402245922309 1.2178431711717859 5.5488075489328113 145 110 72 0.84201624620321092 99 2884 84 3230 80 3062
18433 3.6464222199877026 0.58783686609955677 5.1278485000531795 204 180 146 1.8550197513505171 27 3804 84 3260 80 3122
18434 4.1536001976371661 2.1909754156040613 4.5219505047259023 179 157 144 0.75922364657247565 99 2110 80 2071 14 3303
18435 2.0691198038078471 1.5134404551736189 6.5582682789123661 129 96 65 1.9556926105901582 84 3268 86 1396 99 3184
18436 3.8831992164008673 2.2047208693863967 4.724675956409464 215 197 195 0.66702206122629426 99 2369 80 1748
18437 3.9706802810268735 2.2530278067183827 4.6648248184397128 219 199 192 0.17885045148865258 99 2368 80 2939
18438 3.9386441170326361 2.2436339567505543 4.6042163009434809 221 201 194 2.0316154157726358 27 3866 84 3277 80 3447 14 3262
18440 3.9987289224178544 2.6978022842112273 4.569985967585537 214 189 184 1.7157166332560407 27 3060 84 3299 80 3209
18441 3.5057257865086138 2.8568591567506894 5.0093769121353073 161 141 140 1.6938239452917123 99 1405 84 3317 80 1763
18443 3.2792025051612215 2.9163883320977964 5.2276255866049448 157 113 74 1.3349286011667383 99 2013 84 3323 80 2037
18444 3.7178947144348413 3.126148348034604 4.8109064504405135 200 168 153 1.5896959086874645 99 2434 84 3325 80 3231
18445 3.2037112725617387 0.43723825413649098 5.5582210838762007 182 147 107 1.9775556759741197 99 3432 84 3334 80 3768
18446 3.4557708020964131 3.8854923060872149 4.9344176574479421 172 125 99 1.8780731897581329 99 2392 84 3345 80 1796 75 1446
18447 2.715680025521876 3.7950751006694619 4.4130495799251817 114 113 121 1.2825406066137757 99 3552 84 3349 80 1911 77 2196
18448 0.68913845636163751 3.6682666916944622 4.0729759973084567 120 125 145 1.9328618816601704 99 3537 86 743 84 3378
18449 3.1539626495479633 2.696676395057477 5.409284556559693 184 140 95 1.4369132330998957 99 2021 84 3396 77 1349 91 786
18450 3.7178947144348413 3.126148348034604 4.8109064504405135 200 168 153 1.5896959086874645 99 2425 84 3418 80 3534
18451 3.969534799729538 3.4230623652399195 4.5888711175416113 177 128 98 1.6036371103702682 99 2029 84 3434 80 3579 87 1291
18453 1.818597027142032 2.499852244992987 6.3652088455849798 47 47 37 1.8100377614581249 14 3138 82 3247 84 3444 86 1796
18454 3.2216333326007351 3.3711272161430195 5.2750351010096219 157 120 94 1.6575919707530058 99 3048 84 3450 91 594 72 1010 75 4507 86 688
18455 2.7484375503038923 4.0701064577542612 4.4103978257510192 124 122 135 1.8361836287553188 99 1959 84 3467 80 3671
18456 3.3111473134783331 0.74982034294910538 5.436679785839452 157 124 89 0.68471396803288853 99 5369 84 3470 80 4575
18457 3.4856867972409482 0.85285645324301829 5.2617376927972339 165 136 104 1.6028235490899354 99 2733 84 3471 80 2684
18458 3.2804496085669039 0.78432478798138505 5.4512641091892364 143 113 75 0.88003038035464753 99 2179 84 3472 80 2648
18459 3.7143468191312081 1.1324488579107117 5.0183042438044678 204 175 145 0.63219650060673693 99 2208 84 3474 80 4329
18460 4.0337079455289313 1.2648455443186271 4.7219545125275912 178 152 127 1.0806359920223796 27 3484 99 2242 84 3475 80 2848 83 1920
18461 3.3282903700929638 1.6910357862563734 5.3429172053788196 166 130 98 1.3137764136385104 99 2920 84 3480 80 2162 14 3315
18462 3.1254460006353306 2.3029946116482161 5.4570122170236948 165 129 95 1.1765180786639324 99 2995 84 3483 77 1365
18463 2.703847323396491 2.8559651259970704 3.8736089277313068 139 78 111 0.34425514414999403 99 8312 80 2914
18465 3.5270279991248801 0.20736459592110215 5.3062066289896723 157 128 94 1.9564812975243822 27 3991 84 3512 80 3744
18466 4.3480881119281483 2.3776223860365682 4.3665295512880844 176 151 137 1.7000829573075278 27 4521 99 2118 84 3520
18467 3.5270279991248801 0.20736459592110215 5.3062066289896723 157 128 94 1.9564812975243822 27 4040 84 3529 80 2987
18471 3.818294881824019 3.5011546411688648 5.3495161896154739 220 225 254 1.232386192130734 99 4895 80 3520
18472 3.4257171469555008 2.9945101738762601 5.0817739105381543 175 132 98 1.1883091462306137 99 4876 84 3577 80 5973
18473 2.3011536217133663 2.3141235626826986 5.8314123063633199 181 179 164 0.85444676773281747 27 5644 84 3583 14 6474
18474 3.739547539239926 3.0676557218483236 4.77883663331375 208 172 158 2.6835873427058132 99 3007 84 3585 80 3528
18475 3.359041725478527 2.8819390743797482 5.1371351819287927 136 105 84 1.4923089932266174 27 2919 99 4463 84 3592 80 3490 14 3165
18476 1.2654200317755158 1.8926123147468688 6.9654440088362586 91 66 36 0.51406948840469702 99 6158 84 3599
18477 2.2429194942406614 2.4228249251132161 6.2740485923794926 138 139 125 1.284802151516474 27 3958 84 3601
18478 1.554916293170159 1.9370368091359635 6.8981266825436167 118 85 45 0.8229867859693627 99 4822 84 3636 14 3167
18479 4.2077100073327225 2.9716781269798669 4.4025592749156619 178 146 135 0.54607704752890873 99 2960 80 3234
18480 3.2305169595696648 2.5373909011098479 5.2972589740383311 159 122 95 1.9072004231588207 99 3011 84 3647 80 3438
18481 3.980398911640203 2.8374561025412133 4.6107545851368856 183 156 147 2.1438947132186521 27 7756 99 4964 87 2651 14 3194 80 5965 84 3649
18482 4.1219521294330201 2.8497762623474907 4.4012120684415699 174 146 134 1.580266240591113 84 3651 80 2005 14 3197 27 6101
18483 3.0797857504328863 2.4236637423009495 5.4988467401710706 179 139 104 0.038659882639653219 99 3016 80 3888
18485 4.0747242055758104 2.7823027943574941 4.5046764306059428 214 188 175 1.6856368583610184 99 2958 80 5963 14 4889 27 4481
18486 4.0861765818382478 2.7513658694374912 4.4198039715352699 185 159 146 1.836063848061523 27 6089 84 3665 80 5957 14 4894
18487 4.2130047203751158 2.8338515620808868 4.4132664550148677 189 161 147 0.34856997659558658 99 2945 80 5951 85 2212
18488 3.1470503211284355 2.3838658339491925 5.4267292141572669 195 156 117 0.15890064320122421 99 4908 80 3403
18489 4.036110818040255 2.7198046671643534 4.54071583174147 184 156 152 1.2553784876598588 27 3871 99 2435 80 3507 14 4521
18490 4.0883859860051475 2.6939482052926116 4.5050704099407666 179 157 146 2.0709912086571225 27 4485 99 2944 80 3503 14 2300
18491 4.0589388846568548 2.6925045911688494 4.5661795293580392 223 196 189 2.5794298802108222 77 1722 99 2067 80 3495 14 3217 85 1717 27 4484
18492 4.1454271531783622 2.7020097582446319 4.4489917901302691 172 145 136 2.2161226467907884 99 2938 80 3509 14 4839 27 4488
18493 1.6768504116988863 1.6788232984386031 6.8162934142613976 148 111 66 0.83814784225061389 99 4833 84 3698
18494 4.1912076412613555 2.5307863348200326 4.4312259519661508 174 151 137 1.6253863596099094 99 2908 14 3244
18495 2.7351827262079653 1.9390353839118712 5.8410937035173793 193 150 97 2.0714443185258995 99 4907 84 3740 14 4761
18496 3.1885474022671643 2.0761891273733957 5.41599861855528 163 129 92 1.2805315466161691 99 4953 84 3747 77 4637
18497 3.1323776550549023 2.0405444301706548 5.5026865021761067 167 129 90 0.10597998656157018 99 4948 84 3752
18498 4.1874709565884736 2.3819367501621698 4.4567090386871486 214 194 183 0.92262585389207619 99 2886 14 3268
18499 3.9083744156231885 2.2593215283023449 4.7172315977608044 179 163 166 1.1223476177510654 27 4496 99 2437 80 3436 14 2689
18500 2.0046050511116813 1.4926010532219451 6.6170715833971991 125 90 60 0.78139661114144254 90 7251 84 3780
18501 2.7427078914322425 1.6851831289531056 5.8595986165829448 205 166 112 1.8933257914276631 99 4936 84 3801 14 4959
18502 2.9928404149766465 1.7709277226139768 5.6040584560847817 208 169 122 2.1068166999411626 99 7195 84 3802 80 4170
18503 3.956410895072946 2.1395741399251489 4.6515730467951686 219 200 187 1.5961682855161328 27 6036 84 3803 80 5569
18504 4.0530443280978385 2.1737393632323876 4.5689851204596392 217 197 188 1.0736798493207993 27 6024 80 6112 14 3292
18505 2.5720784607983207 1.6026850238885177 6.0147993698959414 185 143 95 0.93955889308333018 27 6123 84 3808 14 4957
18506 2.9635235966501643 1.7232049174651636 5.6288979312673062 219 178 131 0.64689747718144008 27 6096 80 3855 14 4971
18507 4.2960357036329224 2.2489466707058874 4.4023391609081735 171 148 134 0.079588748870545206 80 6075 85 2337
18508 4.0339725341750921 2.131129141117464 4.6199041321716994 218 196 183 0.34176348284398383 99 5108 14 3747
18509 2.9435000926076129 1.6877376692612089 5.6489372834697162 217 179 130 0.068098639965877922 84 6126 14 4973
18510 4.1085151907515423 2.1329702062625215 4.5813629768787001 181 159 146 0.51262204150854807 99 2359 80 3184
18511 2.6277686572302579 1.5101609512257399 6.0112248338144108 128 93 51 1.2878407324019512 99 4947 84 3847
18513 2.5102628731813406 1.366085379391595 6.0991143468642646 131 97 52 2.0289997215693476 99 2978 84 3860 14 3301
18514 4.1929014199449748 2.0278117054541234 4.4989929079443387 220 197 179 0.66297022340430001 27 4543 84 3863
18515 2.8529894088056116 1.4914766283149041 5.7743372949578102 151 111 64 0.71009022187940773 27 6082 84 3864 14 3309
18516 2.9534788183177314 1.5066922146658983 5.6294649736898776 199 159 108 2.423335438551379 99 7155 84 3867 80 2798
18517 3.2543636845989852 1.6158090210639686 5.3914172830128724 187 152 114 1.2803897496906227 99 2491 80 2857 14 3362
18518 3.314989682044716 1.6363082466461669 5.3414706379584462 160 126 89 1.8071618164801564 99 2914 84 3877 80 2864
18519 3.2983982788014194 1.559698930151896 5.3610654942066143 164 128 92 1.7510518805900139 99 4299 84 3906 80 3102 14 3800
18520 2.7127399983967631 1.3015636919049807 5.8972049676444751 191 153 104 0.42590978934894125 99 2957 84 3918 14 3320
18522 2.7331702532277458 1.2937138939992465 5.9150510926588211 151 117 72 0.86842700044035048 27 6075 84 3929 14 3796
18523 3.3608287081799011 1.5288890256346421 5.3060885185870807 152 119 91 1.9893626883864413 99 2891 84 3930 80 2838
18524 4.2908664451830658 1.8048203111144865 4.3877979371088101 182 156 133 1.7160587590420284 27 8231 84 3949 80 7061
18526 3.0629261899991489 1.2981618230753471 5.5830793935921168 179 142 98 1.5463885815359422 99 5065 84 3956 80 4389
18527 2.6358349846911837 1.1334755472811902 6.0205400082066332 137 100 55 1.2010465964179668 84 3961 14 3828 99 2946
18528 4.274348227289936 1.758344016650915 4.4119596024081655 224 198 171 0.90910316087304144 27 8218 84 3963 80 4017 83 2749
18529 3.1226497035418892 1.3075061594630661 5.5325113720717685 147 111 75 0.90327110541248246 27 6027 84 3964 80 3850
18530 3.0952346524203178 1.2936030492106658 5.5363001057033889 181 146 108 0.20730469264047152 84 3965 80 3954
18531 3.057063152992912 1.257205766535368 5.5682982145015698 149 114 74 2.6247029144164089 99 5070 84 3970 80 2748
18532 4.2610683998599574 1.7388201050984042 4.4637261676170183 222 196 173 2.066287682408857 80 5571 77 2986 99 5379 84 3974 83 2762
18533 3.0225543545668203 1.2061879543612417 5.5604554666025381 148 113 75 1.9421350545247151 99 2903 84 3984 80 3847
18534 2.5782893891738126 1.0581107607159568 6.1020774770962296 194 153 101 0.68028362860926272 27 6064 84 3989 21 4589
18535 3.5141440245211104 1.3969653382184584 5.1823131125305757 167 138 108 1.4315618179694241 99 3274 84 3994 80 4229
18536 3.2160876665811879 1.20273041775385 5.4425810785824442 193 159 121 2.0066139589294774 99 2445 84 4026 80 2753 27 4534
18537 3.4572850248994893 1.2830402449947265 5.2146396463811877 193 162 131 1.1683843207679376 99 2836 80 2794
18538 3.0191327179540206 1.1209355805761563 5.6488169013740217 145 113 75 1.3077504070488275 99 6417 84 4033 80 4456
18539 3.3938792677922867 1.262025725826647 5.3001646724007241 159 129 95 1.5013968657925616 99 5171 84 4036 80 4336
18540 3.8942601563420949 1.4576537441097088 4.8548461813763435 174 147 118 1.9452459540666049 27 8237 84 4038 83 1953
18541 3.2930267502542625 1.2048722371895675 5.4133532553610246 152 119 86 1.1230484887085688 99 5147 84 4045 80 4391
18542 3.3820538310318109 1.2220082013042926 5.2804535691377348 194 158 126 1.7796703253261557 99 2521 84 4048 80 4352 27 4960
18543 3.0397916006814922 1.093585554958366 5.623083730894594 140 105 65 0.97978743193678941 99 3418 84 4050 80 2697
18544 3.7773138858353157 1.3830086343153514 4.9366100585795412 175 145 117 0.57529256777115756 27 8244 84 4053
18545 3.0568181854732033 1.0902659120989269 5.6094782992501617 173 139 101 1.3464823156886474 99 5107 84 4054 80 4460
18546 2.6458363595893237 0.87292170335483354 6.0287269216621722 137 100 58 1.1350041907984953 21 5613 27 6032 84 4075
18547 4.2109997405758941 1.4480703919161981 4.5155028835667057 223 203 179 0.61886086196440637 27 8150 84 4085 83 3889
18548 3.3616862241136931 1.0957103561232129 5.2990606100495308 191 157 122 1.8976419228432466 27 8266 84 4090 80 2741
18549 3.7783354043706545 1.247799131533111 4.9440538600400918 202 171 142 1.9964681689112147 27 8209 84 4098 83 1873
18550 3.7985114287621982 1.2617770843850746 5.004072113580591 194 165 133 1.1443221465142379 99 2753 84 4101
18551 4.4402436029879944 1.4451252281786109 4.3103683471309466 219 193 166 1.44924107049753 27 4659 84 4116 83 2724
18552 4.4472862464093428 1.436096440983097 4.2953813032556294 167 140 119 0.93254198696703261 27 8098 84 4120 80 7306 83 4230
18553 2.3374191970267129 0.60032503433777129 6.2955624627702562 162 125 80 0.31588397620105541 21 5539 27 6038 84 4129
18554 4.4565248161520872 1.4356973801900041 4.3427387638655182 214 190 164 1.6438698704941583 84 4132 80 7327 57 5235
18556 3.9180292698656758 1.2002815238913997 4.8454269116865714 205 183 159 0.81850715895739234 99 2580 84 4139 80 5276
18557 3.3411000279706 0.95965094510021565 5.370937213178772 149 119 85 1.0038348101527965 99 4593 84 4143 80 4465
18559 2.7432772944688679 0.70216245469480831 5.920131710795193 168 131 89 0.17658324136421399 99 6458 84 4153
18560 3.9444680163689152 1.1683072400177161 4.8308638769497874 228 209 179 1.1433981422464958 27 4628 84 4157 83 3128
18561 4.4727799001691784 1.3514520265629799 4.2876448805499656 171 143 121 1.1287481668791204 27 8063 84 4164 80 6346 83 4231
18562 4.2072400098941305 1.2223979501421907 4.5682557719576771 213 189 159 1.836126463211659 27 3994 84 4171 80 6299 83 5175
18563 4.0484106961586708 1.0929120843329818 4.744578834241242 214 191 163 2.4517553192298291 27 8108 84 4193 83 3162
18564 3.5224214493843515 0.85749848231004966 5.2170291673617193 166 135 107 1.0604623564477944 99 7832 84 4203 80 6189
18566 3.0274320592345405 0.61607915663552515 5.6932131104464228 150 115 73 1.9512534303792215 99 5291 80 3807 84 4226
18567 4.1197729351433585 1.0232191351985989 4.6544217537613379 161 137 114 1.1660041488535473 27 8067 84 4232
18568 4.190153396125182 1.0377572865663656 4.574530525642305 176 150 125 0.74545930201738619 27 8052 84 4235 80 8558
18569 3.9630921957616452 0.9464619431326009 4.8262017962046544 223 200 169 0.9213887013442752 27 4667 84 4238
18570 2.9239918552192203 0.49716227791218137 5.8204997994744767 129 97 59 1.634946337737113 99 2795 84 4252 80 9136
18571 2.9530159346431151 0.47146904693743741 5.7802383468587673 170 135 92 2.3088424092831334 99 5321 84 4265 80 4841
18573 3.0481384064889534 0.40580205873082109 5.6967560344137187 155 120 78 1.8925298500577317 99 5402 84 4297 80 4851
18574 4.3746476133014767 0.90574658910984962 4.4176471669062707 203 177 148 1.6916920288214659 27 6394 84 4300 80 6570
18575 2.7441588861466739 0.26305147689569996 5.9584107900756251 191 151 100 0.26931883697803405 99 5313 84 4306
18576 2.0467261034076527 -0.00087663611849889611 6.6475909226112062 80 76 65 1.185485196152769 99 4580 84 4313
18577 3.5133029437486689 0.54169988401197156 5.2589847423114815 200 171 141 0.85240154411475333 27 8096 99 2645 84 4317 80 4637
18578 3.161318883916584 0.38425125794269638 5.5988336478223104 180 146 101 1.4437868379656786 99 2702 84 4325 80 4836
18579 3.3889036312842369 0.46534873253959563 5.3895604407379238 184 152 116 0.95130079763244002 99 2590 84 4330 80 3809
18580 4.5922355771871262 0.93435144176203178 4.3168120047122667 168 142 117 0.90964579059422823 84 4331 80 6468 83 7356
18582 3.4953388216364849 0.47421849674802502 5.2865820322836399 208 179 147 1.5313297767428919 99 2630 84 4352 80 3939
18583 4.5119331547147361 0.85266578927839387 4.3161722991152072 216 190 163 2.2930641991615475 27 6268 84 4358 83 5125
18584 4.2560450350775216 0.74264731144064144 4.5323274595272727 209 183 157 1.0900842433658346 27 6367 84 4359
18585 2.1384629532830268 -0.064064310252681445 6.5579231273046901 79 75 64 1.2373645937382869 99 7657 84 4365
18586 4.5092678182938952 0.83516234985168103 4.3307200332292792 214 189 159 2.5358445993783723 27 6253 84 4366 80 6598
18587 3.7179236207657143 0.50073796389786085 5.0826024449236753 161 135 108 1.2166765320961355 27 7587 84 4377 80 4614
18588 3.0285106696731052 0.21865405820936892 5.6788712985311509 178 141 96 0.0070946989338377987 99 3584 84 4386
18589 2.7758409623727331 0.13020937041374567 5.9847180603585972 149 113 65 0.67822381823620692 27 8161 84 4388 21 5911
18590 4.6037197016023255 0.78319353374090284 4.3322239647807121 193 167 141 0.67362599818081281 84 4410 83 4278
18591 3.7016676039262237 0.42575611562415339 5.1198735324627638 206 181 150 1.9655452560371909 27 7576 84 4411 80 4659
18592 4.6736543129556551 0.76911892806707627 4.2238650230709576 207 178 146 0.97150579576746887 84 4427 80 4316 57 4977
18593 4.3547045914062084 0.63721214703482976 4.4631461146528544 168 142 115 0.9376265093694125 27 6214 84 4428
18594 3.6160631325848733 0.28128434712694123 5.1904150643923721 209 183 148 1.9070557787424118 27 6449 84 4471 80 4761
18595 3.4952278732403479 0.23921490055375921 5.3296577227299116 151 122 88 2.1758894771908373 27 4710 84 4472 80 4839
18596 2.6327215506665524 -0.098539190494004877 6.1470190745247928 157 117 66 0.71383006275693095 27 4634 84 4477 21 3336
18597 3.5192850904027053 0.22986767210444609 5.3133650876732377 160 130 96 1.802959398711111 27 4721 84 4478 80 3746
18598 4.594155760714921 0.639377234502294 4.3628925822726279 148 124 100 0.36311304500250829 84 4484 80 6482
18600 3.4371035727818917 0.16476932899988697 5.3836640070548061 155 125 89 2.0184396081479914 27 6895 84 4502 80 9235
18601 3.2159207403317711 0.071984672523095858 5.6985761280936451 169 134 92 1.1035933105110787 27 7595 84 4514
